22.031499 7.899321 88.577263
90.801436 53.502892 79.998996
37.594914 32.309451 96.456924
17.369053 19.481200 36.487865
4.352535 14.663234 76.079187
58.239402 75.747789 47.624148
37.543738 35.758568 26.873200
83.038375 99.246557 29.658939
77.206543 89.002160 80.666828
5.502670 69.444943 30.223163
2.290131 48.648919 36.002306
58.572672 14.525185 29.661673
34.213285 48.430210 41.689844
17.263498 68.836761 67.780691
81.581872 63.123421 56.143446
49.689172 32.365408 3.540199
51.605870 52.246515 64.947638
89.584727 79.383224 35.872605
55.203970 45.478117 26.947831
57.376193 71.973816 69.412244
93.885078 35.392467 30.578033
0.336450 20.010975 4.376173
74.031859 50.768407 95.743912
44.097704 33.052831 83.190061
14.991830 35.569085 45.327339
96.777767 94.990066 56.469353
40.308695 69.710318 75.303157
77.325557 90.260428 81.742282
55.926318 15.446525 65.665797
1.271899 5.419463 95.183441
46.587449 60.546010 76.206823
81.627172 70.997189 2.831939
63.654325 74.190898 96.589800
57.163592 79.243723 34.040176
63.341601 27.788058 65.735438
54.669800 85.468645 42.680689
68.221595 52.119411 57.721915
32.216097 62.305336 36.965810
8.066281 68.734590 90.169873
11.937741 19.658479 74.100109
38.878165 90.431796 30.269170
62.718432 73.617765 29.323698
25.006649 34.341499 84.135201
48.742802 78.789707 63.291242
2.780277 59.675682 38.315851
31.083979 57.309080 50.967646
22.056994 51.266842 39.880835
94.624916 29.755427 54.072677
63.196076 73.309793 36.171264
55.508147 45.371026 42.838125
5.485649 64.768495 56.918623
71.000201 15.145961 40.082883
26.155854 82.701135 86.118539
78.290496 65.133549 65.510504
34.924208 19.853836 33.466497
97.689885 53.251629 42.120580
65.172540 62.515870 82.667923
50.673396 81.687446 15.758977
14.388813 25.561520 10.523066
97.860959 65.544445 54.343820
20.941916 53.048874 25.028212
87.966843 27.546766 36.456120
75.849121 76.072989 29.158626
85.130413 24.021987 46.782416
13.822923 69.201067 34.843513
54.896970 4.709708 2.513556
16.738524 80.867942 50.340888
78.148820 19.854929 79.067398
6.818146 58.643458 56.007460
29.331990 21.780745 91.567240
38.336922 4.284334 44.448709
24.587668 82.389259 21.538004
8.817406 55.682404 32.519542
77.754205 41.902518 80.744099
50.271394 7.054092 35.369593
35.474704 55.237622 1.364202
63.532313 70.958412 50.468532
61.515662 8.584504 47.303798
79.751002 66.907313 95.671469
30.137037 30.771603 24.728115
2.148976 52.330315 78.061296
51.052879 55.684054 84.875600
8.363492 38.547845 12.460367
47.176518 94.897967 62.658504
70.185466 46.768886 67.134877
99.961444 43.869813 58.535893
61.150038 8.447393 84.586118
90.918101 0.867063 90.728219
13.497918 30.353243 77.849599
31.012685 99.304727 2.089687
0.013442 95.864905 27.648941
88.777241 70.075065 2.951407
99.757464 71.883914 29.576861
14.031599 86.839628 98.097994
32.088889 45.215378 14.452437
91.183704 22.063620 45.020444
97.898809 12.377160 71.393523
31.704332 48.741471 18.553443
87.649775 97.280077 59.826778
74.725537 29.551064 80.130245
18.294645 29.926549 95.304409
11.867165 58.682082 1.537843
98.775922 21.815018 30.082106
65.878879 8.348915 35.932200
60.761847 18.528544 0.045295
82.672558 90.787352 46.117183
98.608932 41.349426 86.400264
68.426252 75.573534 20.730980
78.109040 75.628485 24.783037
0.372179 85.491911 82.134762
2.491413 35.778574 41.777375
29.637775 79.767277 51.033017
5.928957 62.552600 23.161560
79.331995 42.310952 48.727334
79.912078 74.134495 41.375684
96.762129 12.310834 38.463505
33.980292 92.423858 23.130082
3.408279 69.181068 10.389938
38.154207 97.034358 35.210740
56.645607 52.311113 21.823949
50.321934 12.721005 31.617885
41.102373 63.029818 60.332297
79.886631 23.882080 40.772942
50.241866 49.078923 76.260563
30.139130 2.358324 84.652838
80.680723 17.888315 16.851116
78.683875 33.592782 69.863284
46.229442 90.689189 95.954806
9.988256 87.080845 92.838201
67.457850 49.539509 82.736094
56.958439 16.363685 67.710914
83.730239 74.870979 94.409473
41.685698 31.663880 26.895372
40.130068 1.380463 28.313306
46.814191 23.958102 37.691331
72.480072 37.294623 38.761015
48.632325 46.120908 13.155088
6.001183 58.634484 23.970285
69.574286 33.607846 18.680456
20.681254 13.165203 30.602711
11.077634 98.059341 13.282539
34.597274 33.073177 17.648860
14.425958 30.198395 78.165746
48.438062 6.387395 55.862024
77.371522 67.494148 81.425761
38.921808 17.732750 64.727139
91.892616 59.133750 99.567716
88.276600 63.966974 35.156225
44.395627 51.815470 75.984706
51.453166 75.713837 72.863449
40.190119 5.252473 47.995357
49.729112 21.594520 84.736263
96.185167 81.059859 85.335065
13.560703 98.450450 6.493254
11.022184 30.622206 77.387811
15.953613 25.711878 77.444218
34.781926 15.036068 30.265149
25.266086 71.599329 22.719227
9.462892 78.647284 61.995282
99.772911 22.862953 78.427232
62.715260 63.328171 40.199670
2.643034 58.546591 15.169109
5.554324 25.021542 24.047601
50.763463 53.569129 86.687192
42.802999 60.419063 78.548152
77.491357 53.018120 53.082167
48.968755 20.946511 45.845956
26.308730 58.324974 54.299510
20.307097 15.785164 62.065603
74.347909 69.977163 10.027235
83.962045 34.461033 64.819549
54.437408 93.427179 6.100607
84.736169 59.374890 81.670402
99.149262 22.563767 27.039218
98.643862 55.940032 22.136324
78.907836 88.788858 23.137941
58.567169 37.170559 34.727724
77.283573 65.075735 98.579455
64.897330 44.812210 41.726324
1.680403 91.473969 33.719291
2.033807 41.763546 88.633036
79.751375 99.955963 59.934525
2.021420 98.452728 49.742033
11.450887 18.706852 63.684564
72.176173 51.109034 99.294944
20.888478 49.625964 87.903303
76.229755 56.882376 39.048607
30.202718 21.939017 7.958304
44.650438 15.388829 1.544005
86.970693 16.004647 19.506602
4.528455 72.767003 63.647489
76.241793 67.832801 73.668031
88.853475 39.347384 44.481712
34.275254 95.898842 62.522513
6.008953 99.265249 81.476484
32.295713 43.451571 5.728900
96.602892 64.004338 31.731163
15.798578 94.839444 57.780240
63.742711 32.841213 19.401709
45.437950 51.354574 81.802441
82.555776 70.310485 73.356621
69.877536 47.685810 64.294721
26.665333 2.603522 57.688327
69.959082 8.968267 76.496539
74.883348 4.916638 72.424399
23.259903 71.046822 15.479141
41.000933 98.768682 20.093354
70.235026 29.186369 65.611465
71.116861 66.787148 71.393484
19.735370 55.416206 93.237490
30.464121 88.785979 82.280547
25.758256 74.909955 78.364662
29.622966 36.464800 30.265980
74.827826 29.358375 22.005810
66.333690 79.295676 51.704581
56.146335 58.938073 76.584887
98.862655 30.399149 80.163196
64.580774 18.509793 47.931009
22.546232 11.206517 31.110484
30.847216 87.824473 54.367309
78.417965 95.362557 16.713246
21.208506 28.556231 79.924006
70.505296 77.973936 11.655063
4.093384 79.323326 11.353691
64.083877 13.713653 41.827666
9.380466 47.661028 95.767356
11.782021 79.780148 91.222020
1.892255 84.811577 81.993563
62.692405 50.249910 46.477478
71.146661 16.414338 45.747920
19.522440 67.310865 54.807073
79.115816 23.760430 40.141178
8.932770 29.853260 41.512645
14.778554 93.175177 73.743140
29.407008 54.728442 26.415420
81.150900 20.946290 64.613298
81.310585 70.290108 11.225574
12.282322 62.902460 63.261123
97.411927 38.650447 88.030794
52.254431 91.226091 55.628451
15.548672 94.124352 24.981942
5.732082 72.342046 86.344776
81.871346 7.775169 96.475686
84.328752 2.699704 74.885940
73.114255 64.575441 69.988996
42.171534 53.909591 23.998635
67.499051 6.891446 86.620610
58.317487 15.934513 74.597057
75.258612 40.405514 78.533903
19.344908 42.889832 66.462229
42.033621 53.810245 42.857935
51.383602 43.086677 64.119014
60.811940 4.041009 49.172084
22.042293 50.106050 2.147586
66.470743 66.869614 98.296634
88.326745 78.435403 81.366866
36.516800 27.409606 9.927830
50.447674 42.081550 70.517336
30.416812 4.717937 49.093677
70.425525 90.016552 8.289148
53.343002 96.443240 17.543984
28.708463 35.310835 6.851554
22.543053 2.879365 32.946679
79.740899 33.403837 26.984813
71.038071 21.580071 77.822926
72.838335 65.325318 22.326659
47.265675 36.303273 23.110040
6.237980 24.879858 46.437737
24.719856 3.630455 82.629389
94.638496 14.505564 88.030831
32.525806 2.726012 17.520183
32.597578 84.649749 58.637357
0.256637 66.947508 73.091349
80.305613 20.704173 70.653273
62.542016 8.699808 96.570966
90.145111 28.158705 17.885133
10.072925 33.933803 85.328956
38.281022 92.856612 8.130510
85.634442 10.272983 6.596642
0.282738 65.285996 19.198328
82.528385 29.118169 79.553323
30.137042 88.919182 18.400068
12.332700 37.642473 25.589339
91.644064 81.285453 13.356691
65.035063 15.599195 83.459102
14.329648 29.884561 73.765879
92.882292 94.821860 55.865318
44.823989 46.230050 6.808065
55.416372 1.586714 38.669354
39.153007 93.256941 37.041123
8.293513 18.133434 9.830155
33.494710 88.995162 91.372067
70.436544 4.319089 24.788113
47.683924 63.086951 88.380549
30.250580 58.132024 71.474835
72.762904 13.535608 37.819577
29.583708 56.632066 64.766756
74.272429 53.029892 6.528639
72.388269 52.300234 6.591258
55.684785 33.944758 0.426358
74.991542 85.238036 45.232281
60.598449 30.437589 71.473601
60.025702 69.840891 87.902371
51.052677 55.378307 76.096576
60.135384 72.098209 28.347701
63.141610 48.486000 49.392280
48.006034 9.067467 36.516102
37.909331 47.994437 82.003673
68.986818 0.998010 8.096396
52.634743 55.128803 7.291593
49.677076 7.643106 90.941699
84.969016 23.821074 37.089533
60.578747 0.250544 18.451344
42.248787 81.141351 0.471670
57.131194 19.282356 3.054682
7.859637 25.305671 60.588766
9.688322 33.437488 56.213035
60.484894 88.472806 55.279646
98.583312 76.956594 68.865786
59.716654 84.471939 57.371236
14.814793 58.088914 58.694802
86.325576 93.405004 86.925322
1.538276 21.821113 44.967075
57.791474 44.179339 51.879004
30.601577 85.239479 93.485517
51.172350 42.389464 4.220702
88.827677 85.339208 87.036976
79.834370 70.538680 91.370182
53.479045 87.630465 67.720346
56.684969 22.138418 98.069674
58.115628 50.801503 75.125748
25.495976 35.540006 34.659243
74.992253 82.460371 26.768399
11.089878 26.103551 70.323341
19.486067 28.898989 50.096785
96.358473 57.541875 90.179735
79.386992 70.914082 81.818040
47.257771 4.530337 38.332031
84.612156 89.423101 48.734358
81.108678 61.849903 96.199152
60.411578 8.428072 34.477617
60.319478 59.212301 12.521915
61.895520 7.330557 37.259573
95.901838 57.029440 69.145954
89.065716 89.545736 11.715731
29.917426 68.911971 82.936432
77.431087 64.186089 34.195099
50.384067 4.396463 39.811502
79.814766 30.527443 42.850216
44.450838 85.591285 22.977770
18.454283 5.225687 71.223385
82.199025 39.982261 49.183580
18.191135 9.943171 78.204135
86.433880 3.592754 55.187388
44.770675 15.839094 44.159577
20.497403 68.914128 98.202694
55.617069 98.492162 73.262782
35.622083 33.768861 9.434078
6.768102 0.133858 99.622414
84.752162 12.471134 11.795357
27.123785 11.814100 16.276245
93.152797 89.523971 24.618833
74.036214 16.752508 23.524917
1.458209 63.743403 13.623728
27.525449 70.978700 51.316038
7.404689 75.528635 35.060982
74.709013 43.526257 45.220950
24.159182 97.338256 35.388823
86.810739 48.001696 77.937490
56.608505 3.437030 11.562483
85.257924 68.962976 59.724665
50.010819 10.951054 45.605373
47.416063 76.764728 19.525724
79.338469 71.993787 61.821272
30.684203 96.789767 59.078864
33.986176 10.701052 77.927213
24.144535 43.904403 63.394503
83.122567 21.577610 44.904807
49.949410 75.125824 75.757131
5.155948 28.396738 13.672816
77.208196 16.256051 3.334836
42.285694 65.256143 13.433444
11.538742 29.210647 99.507389
5.148820 98.254553 21.762391
89.507605 79.314369 30.834045
3.094283 67.350265 51.620299
27.207555 52.306957 94.773510
85.707604 65.193721 38.393264
95.489970 31.639675 60.696295
19.967246 54.835210 33.416244
48.856487 74.685653 83.864780
30.146651 42.437890 3.047565
77.862640 41.502494 84.535120
24.400103 39.232571 98.902487
76.476048 75.279327 42.079816
52.772026 39.297988 19.278104
85.009342 12.445713 33.566192
79.611633 29.974727 72.332124
73.623473 99.306299 10.895885
42.407846 62.217194 14.090502
67.541732 32.948893 34.855408
19.878802 61.310768 77.053507
56.112884 12.947453 94.527086
28.164456 73.851544 67.813368
32.964821 71.969117 68.727864
49.738777 26.346923 78.972455
2.212989 95.915430 58.532307
30.983470 77.172438 68.443827
99.607648 25.907686 0.161252
90.582816 12.312646 53.043919
33.762941 15.458901 53.910041
53.884345 21.136366 43.036746
11.065493 16.990154 60.157583
97.373524 5.491436 46.269765
1.601774 98.903477 91.154310
26.081308 19.969115 25.451543
76.188140 77.246751 98.470351
13.607835 25.235118 48.523469
13.811583 52.713145 32.883419
90.542816 76.176061 76.827971
59.639064 24.107816 41.330258
19.728571 63.249654 82.674724
96.322626 13.574256 16.752413
73.935881 90.851221 62.117771
24.974394 22.549406 83.339364
21.857884 21.822620 65.214787
79.102724 69.911975 89.070011
53.251425 87.310038 82.959971
49.378513 51.411072 84.102757
50.158023 36.334656 27.688548
35.372514 28.348805 90.219097
31.309038 83.095844 67.662790
91.733675 3.755683 88.820025
90.209134 17.122122 14.149184
53.826498 50.212197 5.798890
75.289391 38.628276 47.040255
38.389372 62.098886 74.127572
66.606798 39.768119 82.782463
12.893478 58.891141 84.380789
24.758100 92.155817 48.244263
40.975705 45.285003 45.280288
64.502148 63.727127 65.603744
50.465861 92.768271 3.088340
17.409789 3.188114 47.934108
4.030535 76.878709 46.912570
84.284055 20.977644 56.308429
22.564492 87.438601 35.829361
40.104786 15.405694 51.857500
35.265237 72.488506 96.583795
75.691721 19.168353 13.178558
51.815161 28.365508 48.427239
66.568317 62.619696 71.798699
96.430277 59.717272 97.573101
50.922376 40.351426 39.840110
61.185425 30.144399 7.534627
59.076438 95.681125 13.735283
47.367901 44.416419 32.722817
95.108892 5.080154 92.750864
51.006452 65.426980 38.307914
36.310955 47.791536 22.350994
0.922889 95.703250 99.486720
29.308968 33.125486 15.122594
93.524324 17.654876 92.079820
65.004731 48.917056 8.971107
58.237876 49.562891 47.328113
16.938505 50.581511 29.048820
12.517424 57.670020 27.351675
7.231172 54.471479 45.254241
61.978876 18.440827 33.462578
89.308635 42.754413 76.110282
52.484309 38.102840 36.085758
65.421766 21.932950 35.116800
58.837447 74.705311 70.616962
21.228101 50.316096 98.454625
59.463563 67.311233 1.333137
54.389405 77.268583 80.851602
81.976343 18.589283 96.937169
74.088685 80.721654 57.163221
60.583753 0.263429 74.948031
20.100745 40.595954 44.882741
88.358099 74.528326 56.559680
19.883811 42.561045 43.029000
78.607649 62.236188 8.102568
47.395454 72.021598 87.135699
43.480540 99.506761 42.842209
30.028687 52.696347 74.703298
22.266027 62.412551 40.389761
72.839233 12.099814 42.949058
81.138053 2.667603 14.917962
89.554175 25.987843 33.580007
86.202947 24.933720 88.118952
62.115963 55.832066 32.266732
74.374600 89.564114 20.230514
76.303066 43.789774 99.158055
38.152928 69.501873 64.589476
9.394478 12.856939 25.676744
86.650994 94.062485 58.336899
10.546991 78.698643 42.300158
61.487294 28.132342 15.826695
12.110566 9.715006 25.947176
33.117750 26.276261 68.732645
60.530316 61.017189 16.264224
53.715546 78.972780 41.715723
37.750767 15.842514 80.972668
9.883384 29.310233 56.732987
43.725431 86.559185 23.423260
8.553625 81.020071 22.148183
70.409714 73.028758 94.089626
83.468764 90.641585 94.457299
25.698519 35.724107 36.494205
64.056628 95.633399 45.194446
76.439997 64.781749 92.086781
77.972304 24.088518 7.388815
67.043153 35.502645 55.623478
74.838634 76.640749 63.402735
92.231924 70.053485 11.179500
81.989082 58.852895 2.003066
18.008603 20.793714 77.416749
77.363079 24.230273 24.547862
97.056540 41.890331 86.664156
20.430108 56.158669 64.990194
87.976792 88.737222 10.354357
58.738305 27.269167 64.617556
49.616392 70.133228 70.248151
27.591847 86.855080 85.820111
25.987807 26.642862 74.242215
96.017338 40.838995 35.943924
88.734451 80.503571 8.367519
94.653837 31.323942 24.823830
52.486243 16.271335 95.046217
36.071535 63.072874 85.226913
14.121083 4.584966 80.517778
49.775123 87.732912 72.280958
20.722616 37.504610 80.954451
34.173874 65.746183 0.205820
77.476631 57.645037 18.088321
42.540430 77.506395 29.214771
27.337500 81.502011 80.139758
11.666107 51.613577 21.502118
62.561416 32.660729 70.030453
57.760089 9.383834 71.447830
84.032867 87.113618 92.740012
52.706210 27.395150 57.794081
7.781861 23.128594 30.429966
5.957662 38.145948 17.991402
66.876867 83.081035 47.080050
63.706485 20.124141 27.729312
1.638572 5.218850 84.594167
39.663939 20.901026 4.017211
90.807170 97.047358 33.594615
21.845957 28.248804 26.839468
83.028101 15.113548 34.142516
78.425168 32.651528 90.791513
80.601718 27.440290 3.035504
29.660589 49.292769 25.435645
62.749555 29.117056 33.978270
40.416487 11.486835 14.010428
22.358393 34.895377 56.438148
85.963818 53.952522 73.386768
97.305499 28.326072 15.193260
85.098320 10.325963 31.615540
33.758196 64.267567 13.484403
83.206860 23.988078 46.027479
43.928552 92.192075 62.281405
4.336648 85.400185 88.158360
38.392775 87.420181 28.664251
72.639120 18.499364 65.554053
52.716134 86.287566 46.943609
7.569989 93.368239 25.407012
48.925438 1.402396 45.305851
86.722368 13.784774 98.402079
95.400497 60.052028 60.719033
57.359910 47.866087 33.426613
3.458589 22.773939 48.567558
61.126931 85.531235 55.599772
94.324960 10.633037 71.115859
58.935245 37.401664 76.524379
47.649106 68.843371 54.215453
14.520659 30.783166 95.752311
32.560984 23.425188 66.790208
80.872801 4.275326 57.170150
50.220593 16.249760 73.418931
41.291296 48.222983 88.857243
94.195809 24.433416 49.816386
93.957206 91.699389 54.434941
83.677419 35.964892 96.048104
44.579541 67.342504 22.887136
88.219190 9.435512 91.812348
86.366468 61.361395 58.888900
31.079654 67.186362 85.200755
4.698154 6.870466 32.244478
99.069237 29.017407 40.640311
76.970021 46.346873 40.999878
9.944363 71.246534 60.005972
45.048420 75.385948 46.435559
53.714877 84.024308 34.058519
32.175971 83.251272 67.377530
33.451118 18.886414 80.504727
81.201352 50.396251 98.396408
34.067467 72.663688 54.337541
72.412997 94.649090 21.284377
68.396568 60.873853 30.200208
49.663492 0.257869 87.000102
69.431724 13.762936 57.953220
68.702340 95.309091 74.128650
29.121850 23.175693 92.823849
61.843708 26.363806 26.604280
12.700114 45.022722 96.919469
23.848509 69.559011 62.728173
27.247207 15.585815 99.240969
62.859569 71.704165 88.118705
88.545358 66.356574 24.720739
86.935712 72.018572 62.352251
57.184328 47.029555 75.024012
43.067658 5.950205 65.448728
51.940980 95.488226 98.268172
87.836572 70.075068 63.676842
0.532146 6.591427 31.551055
33.050890 0.916014 17.947112
2.291081 11.019422 47.775775
93.457902 46.856536 87.883184
49.457754 3.217529 16.955506
89.049811 14.797305 89.492162
34.396150 23.493034 24.487441
9.145188 93.141062 70.442171
87.668603 81.276636 72.022196
43.493891 0.612699 67.162369
56.910382 39.752641 7.312504
88.100735 11.309978 79.202532
47.018098 66.694743 88.691760
9.424334 61.411041 60.120225
27.007990 33.437431 6.187456
14.021903 21.896165 27.959435
40.223213 51.327968 7.822787
42.796727 77.472988 67.908549
12.473910 4.044317 1.890194
72.227387 69.056870 53.361258
98.278282 34.345432 24.016471
59.023683 30.453834 60.030486
75.424585 77.928519 12.878656
65.383602 94.808091 16.661907
69.700830 96.730008 93.455012
7.346714 35.069645 82.563664
77.155611 64.417803 14.886378
33.341496 91.462768 29.594821
47.051650 87.788529 54.480730
31.999633 90.791237 4.969053
41.033188 76.449595 89.550841
17.027915 58.469963 61.056724
22.352505 70.945441 38.060465
85.840131 22.293254 7.879821
93.589069 39.139732 56.112751
34.243485 74.465374 93.046457
40.013731 27.732579 88.164204
73.543170 57.589178 68.356843
23.096002 66.879872 95.258390
15.228489 72.450438 75.912605
13.615760 37.528744 45.090992
18.550278 6.258583 35.608332
27.504203 44.109016 86.233350
79.691782 14.632797 25.726545
39.055412 51.005846 2.527810
52.859647 61.557479 1.504062
8.322983 39.067740 77.236057
95.983376 67.136688 75.033321
77.405709 92.390750 68.985638
9.041588 0.819621 49.657487
59.333048 8.510507 22.111265
21.369000 83.867133 98.280932
95.853802 33.390539 35.682269
5.940639 29.891712 74.690989
0.600084 42.535851 43.090251
5.706206 75.268778 55.872837
33.588405 31.246132 67.757484
83.352357 54.022633 49.334320
26.460555 3.525434 79.060026
53.516690 91.951549 35.897423
18.653501 0.147982 78.968051
56.634140 87.150155 79.047733
11.511652 19.122801 46.217894
85.051550 7.229215 54.394054
34.615145 8.615826 87.155902
25.606978 75.711686 73.665822
54.029583 87.040852 96.189351
27.793486 44.353169 57.108573
45.036231 84.370076 38.690569
5.616515 9.050350 9.376526
67.782641 21.115797 98.576308
26.294493 56.031053 57.499366
88.770796 74.183224 82.656678
15.014430 91.745588 92.613649
48.612268 17.370047 29.030080
9.020482 89.434880 91.801363
53.189377 42.925515 93.049288
57.018717 49.512692 44.595483
42.917267 55.754341 39.936142
90.976847 82.972669 54.055056
96.398622 99.284638 92.742194
21.883719 84.099957 45.252294
22.725163 88.195289 88.515187
28.866059 86.620954 60.132013
36.181269 86.454675 22.435533
56.038296 60.684967 98.266425
73.291455 71.762140 92.662200
82.154088 9.438324 88.385755
71.115101 49.130054 65.260165
61.030473 30.949066 65.859522
44.612861 96.193385 98.041278
36.149981 47.931741 56.165450
68.694101 77.667142 69.414007
20.878211 75.332908 31.746162
42.538851 21.314320 35.304798
4.187435 77.851799 20.799883
85.244629 52.586357 44.321069
43.540834 94.589379 57.471378
62.903519 54.678565 35.821490
55.658134 31.658416 42.420898
42.074682 58.742279 64.400154
9.300485 59.552068 78.593550
12.013922 30.126305 27.384354
71.961539 69.084161 76.456802
27.186468 19.693841 88.259443
82.274448 19.803544 16.698162
0.443520 38.840485 4.733938
13.634709 93.562102 92.248302
66.970470 7.767706 91.503927
80.619091 54.222670 49.513281
12.253216 37.790500 91.264969
32.750029 19.187831 26.347977
4.713719 2.662447 22.757515
87.658595 2.681900 35.099894
39.625034 88.921352 21.664955
9.902140 75.472330 72.220994
17.344271 79.809486 71.089175
37.579910 49.382134 26.889407
30.221939 89.008847 74.789541
59.786397 30.907229 68.083124
28.051625 19.778687 70.738853
27.222413 67.253137 51.648258
16.596245 3.327318 65.705164
82.993370 45.518343 65.680915
12.962898 69.752726 27.936493
33.203328 34.137662 7.537078
19.304218 45.593304 28.032152
9.062503 4.830284 81.453366
76.306521 11.221304 55.348289
78.815053 28.625327 83.488784
59.737042 47.491712 49.405191
71.617941 54.626615 30.129302
91.383180 6.518748 20.129072
98.843737 97.873137 37.322316
97.006865 45.491521 59.815424
86.519379 47.197730 6.808195
53.543350 88.868877 18.805110
92.203685 11.812857 65.709359
93.474415 85.513075 96.216828
93.798668 97.341710 86.488035
87.829862 7.537347 55.000096
31.873470 66.530229 36.069010
37.256695 26.949177 14.601546
75.409068 23.274751 71.838181
4.257504 90.807678 34.383443
38.648409 8.085371 97.835508
57.285470 59.942767 9.713393
25.752946 14.514592 13.366456
15.639629 22.223300 67.671145
78.799631 78.532233 84.580463
48.238379 13.320386 46.124492
94.995897 36.377609 40.648267
38.100254 41.996660 13.656198
35.823158 28.526242 27.028059
54.699715 87.637742 58.673628
91.497506 26.144630 2.762466
91.895484 27.876902 34.859220
12.307180 76.136028 39.434714
68.648466 24.443873 88.660919
51.703403 21.694237 39.539154
41.002753 65.356115 56.313890
46.678726 44.093177 95.677031
86.827735 4.731556 64.729445
86.451951 25.596740 56.563602
24.884065 76.429259 56.304454
25.489361 69.049176 58.106052
63.927121 14.092212 86.736065
30.662359 95.348092 75.578312
36.162292 5.590806 53.247089
71.264920 36.593881 30.293002
37.857320 98.718815 7.973316
81.752182 72.375955 17.714511
8.419103 6.757731 20.793568
83.290494 29.350678 34.686349
93.982761 91.568687 77.386013
82.408164 18.589769 50.696993
24.979190 20.021698 59.360746
21.032492 15.033595 74.212418
89.670362 28.198390 56.649974
42.239287 25.142704 81.007497
48.110368 19.529144 2.091855
27.473176 19.344648 12.675026
6.653114 73.197725 16.983313
11.115714 15.249686 16.237076
89.887016 57.792230 46.107633
87.266079 27.932064 93.400338
59.223577 72.181038 8.082527
0.522247 22.836494 67.605414
3.213529 52.336972 53.357608
79.351177 18.892376 80.730456
71.168291 13.661183 47.433927
61.506686 70.963943 62.893458
24.708185 2.963250 30.360427
58.132711 90.941388 59.434356
84.243001 55.164355 9.801963
32.065073 39.709378 44.339245
0.582380 17.422995 42.501601
89.872179 62.459862 44.473702
51.911495 34.643432 42.563994
97.531639 94.943008 62.697692
97.300983 28.876501 44.870412
40.476603 71.619100 92.628210
27.637535 31.583973 46.363820
86.148748 64.510731 98.831908
58.330717 73.372202 82.330847
78.532259 4.680643 33.670037
22.286514 34.730755 68.389798
27.091153 11.522707 2.640483
96.930931 40.653029 39.091272
75.046352 78.794582 56.228546
55.721036 43.951450 72.419994
30.247348 66.672017 66.069549
67.020374 3.191337 65.241185
91.124328 15.171830 70.197038
31.406607 64.221510 2.466294
58.431874 41.552435 15.336387
70.136406 60.531326 87.430400
95.531352 19.322258 74.912667
48.673109 94.941555 93.944377
43.700975 53.610749 58.699388
65.926593 28.802503 96.460311
33.818904 61.320041 6.849379
63.048458 79.275366 56.297731
80.286903 29.008875 21.740699
51.854218 32.974853 11.098995
89.637178 20.754175 87.233919
85.601455 5.973854 26.285631
53.216680 70.891850 42.348140
1.987986 72.490427 65.137640
3.420588 9.538212 38.566063
28.071117 13.726673 65.455997
11.790770 13.041068 8.451794
1.279902 0.819644 89.647903
7.525547 15.473289 14.608347
71.412735 2.932002 15.736567
74.766466 82.110228 72.174904
46.883294 91.238912 98.586125
30.525221 96.601937 52.508980
75.656032 75.796983 9.017714
8.030226 75.936624 65.030477
11.831998 47.712024 88.402215
32.258422 96.406080 13.573519
58.009164 57.123322 32.081321
19.433668 25.685590 93.283402
39.731303 92.294380 27.006212
73.306652 18.433020 34.592640
58.228772 94.948071 39.401141
84.744032 73.921358 83.675704
12.875452 83.698797 96.206306
64.968520 6.009779 57.301765
2.793265 51.102840 74.284609
91.462637 16.005902 1.312725
25.443911 57.843399 17.289011
71.530276 35.132604 87.399512
18.987038 38.883696 36.568526
61.166124 5.194257 54.114979
66.388206 26.187771 40.985923
72.008945 82.424135 39.997572
5.234740 32.896479 3.956698
24.012058 32.596807 27.996509
51.653836 27.458803 35.651017
83.454516 84.024058 28.685670
71.548881 93.006877 29.555332
69.688302 46.912621 90.344846
60.610998 52.875652 64.448777
31.445089 99.829407 90.623973
28.062312 43.660669 25.850035
17.826490 67.867657 12.195524
71.088748 75.789016 27.033384
96.319070 4.316989 63.925034
23.542729 67.969828 9.077007
99.304859 31.092950 97.090600
71.680799 22.038681 28.922111
72.808799 90.900875 96.443343
69.328458 80.859630 81.878174
93.986143 91.107851 33.869045
70.100556 77.688443 66.077781
36.683943 98.451606 90.872106
21.794640 63.626677 55.328562
4.908768 43.796096 15.537438
82.949172 34.519350 70.574268
76.892725 1.866484 86.067845
73.715142 80.703206 96.768861
90.378838 55.683779 7.562269
4.207137 30.011249 60.163621
16.179714 46.660707 71.240318
74.100051 36.083815 13.106558
69.067513 15.323435 5.581595
31.454304 93.792034 77.013088
97.043239 65.542178 16.670926
93.701675 97.890084 52.042902
26.335814 88.674387 18.642527
87.091698 61.783839 85.731048
0.082672 69.792897 91.221639
26.654434 42.270418 60.298306
30.114304 88.663381 55.207224
12.129196 39.013868 30.240913
65.104863 38.607238 17.404349
1.050247 95.528206 87.725830
59.570103 65.752693 81.852712
92.558238 2.102082 81.354779
33.695850 24.213775 14.113883
78.368464 93.742570 22.747791
12.681783 77.398960 43.181438
55.608615 61.889402 78.150901
17.427323 36.869646 39.308402
75.252719 30.127248 39.294316
46.338155 64.645737 36.593691
85.941392 16.885891 91.396440
12.827815 80.353988 17.339208
24.016556 32.073944 8.411714
71.966110 45.596788 60.324402
18.971638 12.513584 84.385991
19.473492 12.213358 54.087835
17.047931 4.308885 92.110752
26.789575 81.301837 90.101924
34.213520 82.269343 16.476618
5.059489 88.939573 47.944442
24.846915 31.078803 1.534314
22.238911 17.601165 48.994065
67.258279 89.196595 90.055884
59.560500 88.911205 64.469866
77.744954 51.959318 39.766226
9.517776 83.219223 75.356755
70.711003 33.288003 93.043202
55.903088 4.591667 44.976879
66.774971 67.034360 69.171228
67.711329 12.659363 61.206262
29.533249 55.254666 45.648421
76.396884 33.453756 81.592579
31.657370 68.409811 69.506291
5.464934 14.416901 80.924925
74.374394 82.361842 11.473402
47.057756 38.186445 17.281715
75.597762 46.315953 61.803766
55.975280 53.606279 45.585116
53.638688 99.484463 2.984945
81.973489 36.146505 89.411218
57.595381 73.223614 4.558180
97.293152 91.929763 30.396711
31.591703 15.593681 41.588354
64.499489 30.627509 65.593765
73.277689 90.152841 68.315421
79.941721 0.312098 39.442951
46.271051 55.949605 98.965464
71.074511 74.427680 96.591678
80.437219 52.904721 13.223207
69.509507 61.283840 57.355696
37.376364 11.490767 24.434178
64.438423 74.120065 15.067065
16.381596 28.501147 87.527934
29.848224 14.916336 67.738406
46.895979 44.187153 94.601013
55.728225 16.694812 79.097168
14.769524 3.519303 43.764673
53.543868 1.949647 4.226074
98.265656 59.397043 99.282395
59.891487 15.541723 14.041867
1.346837 94.647515 69.931049
91.375615 54.147686 61.750913
60.306767 3.493287 94.612750
0.761718 78.593882 49.306184
98.015716 43.204584 93.245186
79.688481 13.313555 34.380354
78.386807 97.012432 73.897870
30.654842 25.988180 77.160309
62.935817 59.860599 51.781493
89.966989 16.576165 68.938865
49.548266 47.450498 86.358674
26.989297 96.298063 43.462401
27.366480 1.147690 67.524391
88.570308 74.005122 20.321617
59.747589 12.018345 51.965581
72.361496 2.722268 13.485484
13.416621 48.591920 79.723303
30.180742 47.292452 62.036449
10.724998 19.678209 30.487013
8.029877 27.934438 17.930937
77.146365 56.238234 40.456668
99.769489 90.291756 30.738641
46.478430 4.255443 8.317456
69.772526 80.452137 21.186207
30.358831 7.079429 78.889207
67.365444 6.933178 51.032639
39.832357 40.804705 23.042913
37.454490 62.339316 87.841487
81.932200 61.168016 40.215275
88.847042 81.173920 16.054021
70.845661 36.251825 76.066070
28.078629 44.321174 12.124723
6.951743 45.276056 50.906021
66.064823 56.155591 23.725027
24.873879 23.223497 92.624308
36.568350 93.793980 6.453359
62.502690 35.197404 58.717143
77.598105 80.503959 12.328728
17.209191 22.355530 57.199303
7.440906 27.992143 98.455597
45.351801 70.049772 35.984538
90.929714 46.315487 99.131193
86.338297 10.288534 97.538022
63.482743 98.191950 9.046562
23.774930 27.028697 86.950079
80.035277 97.426490 50.509557
72.330021 99.203069 91.243136
10.398760 13.910969 81.181276
66.310038 89.537065 49.714477
78.055272 92.719653 63.682946
72.770083 46.470994 81.962317
54.209114 64.730704 31.303010
63.814638 88.369798 73.343513
30.132868 92.214640 65.548712
55.646095 64.077432 13.266193
73.397012 92.751157 72.697871
96.792754 41.643964 38.934225
44.836097 93.434016 15.283256
49.678038 22.719414 0.194265
70.391615 0.499801 86.081846
84.262091 38.245922 62.525810
92.683769 61.213646 58.511401
21.951790 62.264023 71.680432
27.645677 69.818946 35.207051
23.796652 68.881740 49.371730
7.082702 83.807181 48.122053
69.803673 75.032114 46.589572
7.546192 22.732833 59.953149
55.979271 48.517917 95.227622
34.098547 15.735132 78.160316
6.334879 85.897682 32.212942
17.996953 60.236313 23.393817
53.194041 31.837621 37.653091
5.827230 64.400868 51.113041
30.915161 91.614212 13.456697
46.667081 71.890086 11.476254
60.864623 1.272682 86.677488
37.639445 45.699911 33.247192
50.617047 61.472048 89.690322
8.992548 67.980740 1.892135
90.135270 41.992205 0.291571
8.792900 18.840640 49.682255
47.548228 30.689184 31.997453
35.277475 77.970725 63.737238
10.868321 14.135967 63.968980
97.717845 51.485783 58.035787
39.690283 57.900364 66.466641
36.644446 83.670722 81.037825
2.867478 15.707830 58.674792
15.771057 7.459908 92.556241
15.813056 16.602816 90.951074
18.584639 40.744656 37.318568
78.073522 3.657090 73.719021
61.072877 40.077627 98.204849
49.281352 30.240025 45.147582
42.001002 99.090895 55.783160
31.634339 24.490842 4.896539
72.624292 15.818801 74.898380
85.411533 21.087413 41.645083
45.264941 85.795794 60.350279
71.761022 6.436436 58.130538
65.445237 40.704972 21.979349
10.239193 18.573123 24.353689
31.233025 68.276667 44.299688
79.004870 67.098511 76.595958
45.300706 45.802739 7.765318
83.977602 0.950151 45.157102
99.025310 93.751218 96.950115
14.504373 31.927738 89.127481
0.719729 90.442243 14.648024
92.670817 98.190433 22.407964
38.817945 34.705360 5.677399
97.122906 74.533883 92.696410
76.606288 8.300797 89.011090
74.999976 15.074320 75.831469
72.077607 22.729766 39.303477
36.860261 10.436006 2.161304
35.768122 19.420881 85.137941
31.747654 89.713620 85.554474
77.983879 39.500244 73.053957
54.342376 26.919239 62.953936
68.040348 55.346266 24.543729
20.848592 71.957052 64.884001
86.847552 33.523640 85.692040
2.371200 58.862611 36.108922
25.953618 43.600440 28.834781
43.837511 79.879609 57.937483
36.361855 71.176047 71.557273
43.307396 26.103291 88.026864
4.554331 65.272893 90.765829
29.624364 55.114317 40.630422
87.999598 90.857816 98.688084
21.290164 24.080520 99.959729
32.767821 14.472682 57.600196
2.582545 34.311503 75.314570
51.109798 22.045819 77.347963
39.659350 31.256754 23.477270
91.125849 82.487105 97.792543
4.181089 3.892157 80.388977
13.982834 27.353712 11.308452
84.713819 88.306506 84.561337
36.632235 49.860580 88.894386
58.575684 22.199321 33.054552
25.430183 1.303182 32.742684
10.217567 99.292858 60.876575
93.111145 20.366944 66.554186
38.001748 89.926950 62.778628
85.028253 72.799203 15.697914
42.054387 43.663565 74.522004
1.679663 44.803619 70.166932
95.591962 24.372494 69.914165
13.643644 84.420503 29.676054
56.154961 16.592992 40.385689
30.629170 55.167052 6.724785
3.743536 79.018049 39.886567
88.521551 74.889252 97.476140
11.198130 4.673310 47.142187
42.074466 87.118362 90.580215
69.335281 89.480246 21.962911
27.440465 19.087528 54.993613
52.423372 1.423559 62.561001
87.322933 9.771328 55.165917
59.619027 97.708624 57.426769
17.144503 72.155619 72.995344
48.123084 45.565603 76.233167
49.708731 1.551997 5.021992
83.244138 3.716667 27.851932
7.346262 26.417821 22.738771
72.744312 57.475442 16.426563
28.200973 57.678824 92.417068
4.080799 24.169884 94.217307
59.994518 5.903635 74.484846
51.471268 62.206820 73.997757
54.322151 88.051239 72.801348
72.423946 91.123702 22.260588
18.228713 83.581788 19.299330
64.552134 25.588646 79.319245
64.644661 93.417525 8.126368
20.501298 21.423276 99.701369
7.116194 38.640595 25.671669
38.093281 57.285442 22.467847
36.637995 3.040207 74.851295
95.528282 37.162281 84.346080
89.348412 88.464783 79.962675
22.118564 13.594949 39.337300
32.434873 74.537566 38.491746
26.250335 13.829503 97.223295
18.950934 62.050143 73.145061
62.655567 16.896265 34.402611
89.734206 3.274679 62.233362
32.049323 40.406897 70.324092
53.755753 35.730009 43.944741
25.025392 71.513407 57.441959
79.752667 74.571673 99.272951
22.255718 38.829807 75.336553
25.253423 28.806431 8.905758
18.503791 48.396950 4.867169
58.978338 6.986735 55.908605
50.257699 16.190782 34.077467
53.209668 77.774276 77.398577
53.016715 69.186774 61.675311
32.364335 92.237497 75.799971
29.939338 20.366482 98.142065
29.526605 16.683876 65.037982
43.619982 20.530505 48.002336
38.663413 81.093094 48.641392
81.361271 97.596400 20.168710
35.812300 85.983621 23.666816
37.993846 58.321563 74.826784
15.097437 7.603327 9.381628
57.846563 81.285746 82.708548
75.864068 58.044558 2.281577
6.771619 91.225008 32.365701
28.862487 90.144327 37.560203
19.665635 19.638406 86.616297
18.680034 74.394757 64.439700
27.485481 11.750892 10.008513
52.070726 58.263714 35.728407
64.186468 1.845377 62.127974
13.880400 64.276730 30.231206
32.429722 48.834637 78.910838
14.682575 22.977694 64.021615
47.269752 82.126736 29.972484
92.086709 77.155862 62.283112
49.159710 69.965260 46.056822
96.443400 46.957984 77.098255
32.978850 67.303205 13.039683
59.105384 78.678186 81.153189
91.092712 80.440849 73.680358
56.421525 63.806492 51.794307
75.710172 64.095042 89.757859
31.844029 97.242528 31.671365
98.374023 55.323444 8.972734
9.669107 70.621287 55.006351
68.681276 95.601926 86.089000
54.019877 77.885344 37.875929
9.418008 90.233523 7.983214
19.661968 52.973651 52.276940
27.294348 47.783136 45.552752
35.697329 3.698087 0.211489
12.078953 2.311157 83.226315
8.778453 94.279920 40.965795
81.787899 55.867747 19.985180
24.226025 69.095156 96.671092
45.264968 19.233990 84.804627
8.011773 98.466593 62.928154
1.346743 65.556482 36.521089
10.148552 0.343268 62.592382
89.926021 19.521300 85.109322
90.612901 47.038009 2.770299
1.943593 40.726146 67.323896
8.126121 67.659136 91.901280
99.301651 93.314046 99.277344
4.130754 29.002937 27.747933
97.051488 32.899692 36.928954
45.745756 47.237065 26.298007
5.762387 82.234210 17.452273
17.347809 18.605315 56.298506
56.890607 0.390666 94.655908
0.902326 56.033914 85.451599
19.566061 86.215966 0.508016
59.219930 15.124815 68.614321
87.673241 40.964329 35.453385
88.377606 34.300424 53.716569
34.414698 40.026471 18.450775
43.405051 34.594713 22.119720
6.940167 49.411762 57.311089
94.338752 77.776980 18.710249
70.661743 83.878750 81.704186
17.252106 71.557787 12.076298
42.903702 82.538728 16.190559
25.038822 50.735544 45.503234
77.734481 64.687442 19.021613
23.041479 46.631164 20.641634
47.052041 14.650598 11.018822
39.849870 19.198112 18.374642
95.770832 69.689640 81.830305
89.757685 11.799946 72.906912
88.095426 74.599439 26.121625
75.980786 66.098069 49.073085
6.361131 29.439605 49.921974
96.080955 64.593047 87.904466
26.888247 86.048896 54.825921
95.448383 50.297054 26.765300
74.117336 62.670978 0.230880
63.776294 62.133055 29.750786
9.165703 2.507671 69.507982
33.223850 38.216533 80.955701
72.154603 79.605884 3.630653
38.112045 77.478658 78.900785
72.540757 26.291433 38.775075
64.909346 17.077592 61.835091
97.237735 41.845719 96.119440
37.620432 84.037444 32.374368
32.658548 6.891468 0.595407
95.266305 20.650844 90.717866
52.443675 2.633592 8.323140
78.297747 22.028697 83.222649
83.159241 13.325795 55.926916
26.737877 96.492115 12.136942
34.269687 17.683110 87.400542
33.180530 7.101998 52.329461
52.959850 11.675362 66.117809
6.502446 15.221270 63.397845
98.865410 40.088624 88.786162
1.524461 90.915494 1.902069
86.891903 75.631870 97.871565
58.550721 88.475593 48.301035
70.728001 0.186274 54.141303
22.021693 88.669867 9.036727
60.144793 17.409797 94.030158
2.141928 31.044069 36.179871
19.599828 8.908973 92.520589
72.002030 91.710661 39.443144
10.096011 27.256371 0.600893
98.064954 27.926435 18.848299
15.753038 54.219599 89.892328
1.618079 10.010784 52.631218
74.166819 80.130190 16.980732
48.522403 81.981241 99.759659
77.786856 73.689206 2.941356
29.978550 13.724354 64.262505
18.156361 73.375973 69.077181
40.223950 12.812189 81.376286
77.429369 93.374479 56.174724
52.995065 83.228681 22.029512
2.997807 29.638170 0.199714
98.547272 99.050970 39.114925
66.946723 55.897071 33.877283
69.395239 1.685872 86.770520
92.656206 47.994755 35.353806
89.683517 60.614941 4.661340
28.843645 23.550482 1.155837
53.309109 75.568882 65.736042
43.017173 8.427772 45.654396
9.924587 89.426736 42.089670
81.137321 38.309719 0.569618
5.650207 56.507164 78.719676
80.396929 83.645161 12.231899
32.219421 1.123165 62.885361
89.672132 84.878398 12.842188
73.272557 37.213546 29.676848
1.676796 98.006635 33.846942
0.983304 51.838162 62.729894
95.242428 82.754086 76.759911
88.567639 2.845847 33.170061
3.000696 85.145124 21.404698
92.517744 3.717801 68.297767
71.835942 59.371117 43.538094
75.764339 41.160306 61.499699
1.948169 23.481707 41.388685
6.947636 64.403456 58.561710
16.173300 82.110289 31.959472
94.757459 68.501874 68.661279
89.256475 4.717580 2.852490
59.270837 19.735251 3.580344
63.654640 13.286800 95.884644
60.390328 13.911603 73.827819
58.952540 46.028431 79.045985
49.938036 22.553199 87.399624
5.271143 94.843912 14.417045
17.393330 94.968446 53.475447
23.512117 52.997275 29.057700
24.208134 15.185392 5.565461
64.205759 29.286440 66.590291
98.296785 99.324111 32.464234
61.101981 31.728791 40.947017
64.587533 30.826869 90.328056
12.641350 68.698393 10.182953
90.860588 98.471140 12.423292
6.479940 97.455353 10.072598
98.632287 72.518675 85.209708
53.169911 40.591295 92.794678
82.371569 61.208854 79.324807
54.203647 1.059950 43.478676
8.702317 3.763769 90.549376
28.768320 98.647765 5.667531
14.991906 7.673041 13.378426
31.242274 13.353777 14.029897
97.512547 77.976123 55.936015
38.678912 80.326746 92.963126
16.553891 84.894854 58.007545
38.919931 90.720970 22.907182
78.832350 88.152895 23.764455
58.335260 41.873190 47.877900
85.101993 31.039330 42.045159
88.566544 90.960097 55.819613
16.122016 45.565601 78.769953
86.987746 55.292746 36.892529
58.389986 50.443245 23.117920
14.559586 15.749794 87.287618
37.600013 21.200021 31.127570
26.380241 14.171212 25.060418
23.180546 77.400339 5.456216
9.942976 9.063934 64.186446
81.724128 22.355749 95.931734
98.131117 19.542935 45.886611
16.483574 79.963422 36.274768
69.042526 31.251130 99.375266
86.305975 8.889039 22.954191
32.983178 0.670283 10.480618
29.908831 64.669987 64.185667
20.338618 13.047537 9.018883
96.949299 26.758335 16.601033
71.822277 72.579291 97.585415
79.598684 68.285216 97.844035
68.575387 41.867425 33.248184
83.570612 83.733764 31.092702
49.441710 76.295779 95.707273
77.062191 72.317923 17.951119
12.336672 75.485855 22.904665
49.095480 85.127769 99.762783
18.810070 9.663640 14.287536
56.805126 70.182224 50.593634
70.359062 10.217891 48.553289
22.695188 35.884371 27.976351
48.933685 84.167008 73.998468
26.998096 79.871283 88.011639
49.181494 6.797589 45.427961
68.881081 99.726385 9.446744
56.802744 10.196308 66.477575
78.016039 82.613948 68.841507
9.129524 98.769464 59.881418
52.103829 56.332851 12.141655
9.867653 34.550719 24.123018
84.959576 11.753837 7.675175
46.556013 7.685068 26.453937
8.365325 8.789349 36.585030
16.530531 57.366244 71.583122
28.872672 76.862440 30.711790
85.577299 61.268128 65.192802
43.242452 80.003718 62.797492
70.145808 26.376697 39.447503
14.215158 38.189298 59.005727
53.802862 63.766456 68.541819
2.448015 24.946160 32.563846
58.268079 87.928649 45.259829
15.663416 65.787309 34.944765
87.323890 28.358341 74.599002
72.745470 78.886451 59.343996
0.457924 85.672539 10.058698
40.333839 54.605120 61.754144
2.835355 59.286785 59.123354
75.181091 87.002494 70.386206
89.285160 84.937463 62.632866
10.767844 37.409405 77.535614
2.921602 77.118776 14.016963
26.742308 98.978337 91.893645
1.327911 35.307379 64.484550
4.855691 32.692685 82.859860
18.560732 63.491988 26.073217
85.783585 81.973117 22.798497
46.444137 74.956299 3.312128
96.528164 11.126023 97.450476
1.697629 20.463104 80.685363
84.641663 12.472882 22.430635
32.433018 82.968207 66.744849
47.855237 91.610218 81.855476
6.963879 86.961522 86.497431
17.826881 86.498116 48.528249
38.015164 95.793481 44.393652
46.967542 24.667770 47.992148
18.501135 24.811915 92.809131
15.918830 46.221820 9.937901
83.145369 48.940384 53.202045
76.791628 71.874400 23.187129
62.505599 93.879672 33.467172
91.480644 78.468459 18.125428
84.417066 54.078709 52.313859
20.051820 23.949602 90.981893
70.465112 50.823363 12.851840
69.686433 0.328622 91.942860
13.423987 66.934953 4.364403
97.242603 67.444052 99.813669
38.309335 31.778977 36.790414
31.050025 41.099790 79.651276
84.923330 89.955575 9.395745
65.822392 55.910489 19.580623
58.941310 28.597578 1.873175
85.531565 22.969563 47.026091
35.233842 17.829371 64.810346
42.331000 93.035017 94.874729
36.699913 40.026546 88.878692
2.881409 17.598258 9.691674
29.632818 76.915276 46.225280
61.838241 38.231935 16.817057
72.162451 16.069904 91.281450
5.059340 23.370041 89.605125
49.006731 1.572119 38.409827
98.739168 48.880004 12.062319
62.933772 37.402885 66.227273
73.574278 77.661580 69.196204
74.800386 12.548448 60.493141
29.669145 14.274847 11.204793
29.295910 3.761816 95.631482
67.964178 1.508779 93.622069
25.903222 85.708938 7.536983
41.324639 92.552138 94.798875
27.216961 31.187370 16.424284
98.921066 14.225663 22.166027
61.155046 83.800525 71.367190
16.061179 49.749279 32.184166
14.860028 14.336785 66.615036
65.745408 33.175494 16.401154
49.083072 79.394313 44.079136
42.733910 39.956962 75.507942
81.281896 2.110587 77.304905
99.255261 55.152333 82.067394
25.925636 30.926407 58.353775
33.118802 99.259667 58.900464
56.727656 64.488058 48.518392
14.101278 80.495687 41.283379
84.905235 49.593861 11.567157
80.022154 98.906679 49.724083
79.377779 76.796944 6.808314
26.443463 70.160398 96.927124
69.977286 94.131825 31.666089
73.377981 8.796315 35.135081
47.855582 74.947561 58.732743
62.600912 51.948041 10.837149
31.193604 26.816876 87.328930
67.604188 78.884724 24.910387
53.901988 42.412751 55.468054
30.682705 80.245154 14.972544
51.101250 96.118107 43.125473
86.139969 45.594637 20.959145
45.559684 31.454485 22.385218
35.989485 39.437329 84.202367
20.316753 28.795788 65.981308
52.714379 74.855689 33.120578
72.677833 99.991845 20.187317
83.810318 34.624190 20.673560
34.678749 5.614819 68.235361
39.635787 88.018594 78.519855
29.732305 96.986050 58.950206
43.247287 82.207230 33.518224
50.916448 16.105998 12.212062
30.638707 40.008197 1.648317
2.057730 65.336117 59.343044
58.002045 32.875570 25.044831
26.577442 45.654774 48.847047
33.488247 80.718584 20.591333
95.631231 28.181544 21.006388
72.690055 94.643020 61.716878
45.293438 54.972735 2.481647
29.594651 25.467656 63.581083
94.420152 81.516462 99.064888
96.282443 74.232291 75.410511
24.300725 89.863893 21.679160
98.992821 96.240086 46.715320
10.979510 75.521823 36.616109
39.371139 88.973459 4.621869
3.266588 44.898616 74.984562
26.313856 10.154847 60.525877
13.193651 36.434772 95.250944
96.933187 88.476949 28.074337
1.502924 34.059142 89.130470
45.176522 89.318253 68.917048
46.958887 80.374218 34.449444
72.207728 51.217903 63.665843
93.112222 18.989729 19.875582
17.408323 37.602747 88.718011
75.626945 36.441199 53.746618
88.897776 65.438171 94.562976
77.045141 28.451492 89.923007
30.457274 11.261794 32.107440
63.287327 19.311733 35.762460
94.631584 4.339727 69.539141
25.992395 33.730580 18.627621
67.736361 52.768587 55.583706
56.202207 96.820613 1.700848
47.046937 9.493029 94.655079
16.765385 76.315637 36.656166
68.210594 68.634464 60.445770
16.727922 96.299712 82.226443
36.451844 81.929945 61.713740
40.170219 6.877021 81.077777
79.542988 7.582125 36.276389
0.596716 4.688167 99.696055
7.517293 51.807419 70.444818
92.740593 98.804733 57.756681
6.742506 47.000605 9.730398
69.053480 75.087087 91.981841
78.267433 43.054631 25.274635
55.214122 65.586829 54.933669
52.061696 56.056936 92.774459
44.141633 6.029866 78.836052
35.008748 18.830397 41.464221
