77.841082 63.008049 86.878971
77.864032 63.908094 91.983709
77.245804 63.450516 94.784998
77.767886 64.268182 5.752185
77.014732 64.978337 11.709986
77.155611 64.417803 14.886378
77.734481 64.687442 19.021613
77.055701 64.857727 26.065166
77.431087 64.186089 34.195099
77.229975 64.308683 50.767478
77.240874 64.002719 64.560339
77.686298 64.472153 78.658181
77.333620 64.190202 82.479906
77.752036 64.007366 86.303609
77.004554 65.669418 4.272171
77.699436 65.201707 22.509430
77.031296 65.329397 23.043722
77.536383 65.909805 32.250711
77.604306 65.367494 41.443142
77.209308 65.856279 43.946298
77.949885 65.525753 52.522349
77.946485 65.998367 73.743989
77.309673 65.646100 82.318534
77.180400 65.831476 84.296600
77.477815 65.593262 91.755974
77.283573 65.075735 98.579455
77.565573 66.739149 5.906994
77.966028 66.194992 12.265623
77.170458 66.536677 14.931624
77.813416 66.269616 22.703268
77.891476 66.729726 37.030937
77.060898 66.663895 38.595393
77.762465 66.857469 41.671104
77.631831 66.817639 53.353954
77.285134 66.076704 55.838195
77.935293 66.030059 71.457770
77.204305 66.333803 72.339091
77.062787 66.208839 73.189481
77.825115 66.054250 86.093343
77.130968 66.255604 89.204068
77.627464 67.447104 6.211515
77.007634 67.450228 8.897243
77.273685 67.450694 35.700894
77.018030 67.268841 53.996409
77.348207 67.160665 55.838948
77.424025 67.147378 63.840370
77.769757 67.831252 69.473878
77.371522 67.494148 81.425761
77.078869 68.239602 13.526264
77.801197 68.855214 14.730954
77.797395 68.697586 17.068295
77.906423 68.281646 28.875408
77.846608 68.037513 53.447034
77.101986 68.466774 75.359502
77.426810 68.096999 82.149840
77.450941 68.306794 85.764317
77.967377 68.444853 90.137428
77.271813 68.610269 99.507733
77.433181 69.683360 9.526616
77.834578 69.315831 30.282030
77.209286 69.535063 69.923199
77.288472 69.569910 96.677220
77.880483 69.469185 99.773181
77.963365 70.545437 18.861088
77.739905 70.334552 24.367237
77.487572 70.659412 25.641776
77.835533 70.104056 31.360097
77.734583 70.632060 40.035969
77.857256 70.984660 43.381679
77.803378 70.939102 62.858148
77.550457 70.662189 80.936307
77.564674 70.835928 94.987484
77.161917 70.206577 95.273682
77.409085 70.924909 98.669885
77.379396 71.031280 29.431939
77.546447 71.923212 45.319950
77.655399 71.719023 56.944825
77.940958 71.211161 75.860935
77.234068 71.848282 80.398396
77.916526 71.274555 88.789273
77.628991 72.947298 1.323607
77.832787 72.285324 7.809660
77.036986 72.621496 15.924034
77.062191 72.317923 17.951119
77.081892 72.484553 21.442311
77.568048 72.172306 25.895957
77.193681 72.411698 55.590250
77.605966 72.032210 58.313344
77.010651 72.351643 64.433385
77.067514 72.740781 72.317138
77.640248 72.546464 87.131737
77.786856 73.689206 2.941356
77.501630 73.046307 11.417881
77.549503 73.550546 12.583997
77.243656 73.173710 26.656425
77.733706 73.743916 31.593529
77.669550 73.315136 65.145848
77.361432 73.138939 68.494543
77.770636 73.426400 75.527710
77.761647 73.261089 95.951339
77.898440 73.853625 98.042391
77.466531 74.792742 9.239294
77.852661 74.299436 21.876708
77.273053 74.178750 23.912433
77.363618 74.007453 25.221305
77.253411 74.053351 30.769928
77.085992 74.057396 33.537947
77.057762 74.536349 60.840808
77.786982 74.630048 69.321951
77.603034 74.422226 70.058756
77.454637 74.712480 85.477526
77.724319 74.363343 94.869366
77.421074 75.143791 13.332670
77.098889 75.541136 20.295253
77.482249 75.649986 27.016321
77.672024 75.908014 31.620806
77.734305 75.802947 39.364758
77.226974 75.778194 40.369020
77.619254 75.269394 43.923789
77.059773 75.506776 44.566258
77.536344 75.212579 54.590890
77.740636 75.428944 63.841810
77.601526 75.109383 73.295013
77.402167 75.952434 94.206229
77.878075 75.549692 98.683448
77.061936 76.545336 20.001005
77.111736 76.931848 21.175161
77.480781 76.577152 24.878425
77.692643 76.994106 36.666837
77.191049 76.606061 52.591337
77.563871 76.345063 60.797607
77.348236 76.253836 79.900728
77.372780 76.765619 86.118783
77.132504 76.065257 87.944687
77.171946 77.804129 42.002022
77.327770 77.300218 43.750036
77.792923 77.059732 54.489422
77.865030 77.876163 62.270208
77.734628 77.856881 63.569221
77.285173 77.495464 85.244666
77.673392 77.139596 86.710392
77.384922 77.851508 87.470863
77.312034 77.040989 90.116229
77.168095 77.868682 97.085146
77.252867 78.154273 21.502577
77.044872 78.496831 36.838198
77.419734 78.253347 41.103021
77.840433 78.272004 74.383636
77.189137 78.970458 78.257622
77.404528 78.914189 81.359788
77.062743 78.747593 85.593257
77.390846 78.772963 89.652770
77.057264 79.290785 10.901182
77.078544 79.799223 12.165610
77.442571 79.503917 31.588251
77.136814 79.687616 55.290549
77.939468 79.988913 67.995277
77.908469 79.859361 69.079457
77.380028 79.682507 71.186915
77.091868 79.307512 76.769269
77.259804 80.238179 9.992299
77.190253 80.397982 11.429136
77.598105 80.503959 12.328728
77.385274 80.459904 19.208851
77.453735 80.554681 25.009038
77.058753 80.201639 57.362312
77.861310 80.680411 59.079463
77.716734 80.371203 69.206674
77.876455 80.769099 75.574322
77.837461 80.735982 77.035352
77.525819 80.152412 87.542442
77.241806 81.297680 21.276117
77.449048 81.257701 26.891095
77.218302 81.183948 40.383872
77.828892 81.893784 52.256057
77.904572 81.478554 67.238180
77.882958 81.591952 69.126385
77.170263 81.126897 78.039068
77.393223 81.558652 96.158287
77.432989 82.227008 2.520443
77.652677 82.546432 4.730126
77.381145 82.056790 12.118626
77.851347 82.362860 20.919144
77.822774 82.304985 22.561128
77.557821 82.300614 36.573237
77.063731 82.812286 37.952607
77.870499 82.317306 41.790878
77.778274 82.744576 57.942994
77.253025 82.331140 60.854490
77.184004 82.931223 61.045822
77.001844 82.279374 75.810840
77.456362 82.688562 82.856427
77.442226 82.643543 92.440210
77.286461 82.676209 98.455087
77.609711 83.890424 5.929137
77.648915 83.271501 7.959458
77.842446 83.096229 11.789580
77.103837 83.365520 17.323951
77.536516 83.817604 23.695582
77.916975 83.574606 25.344156
77.379661 83.807439 30.720557
77.744348 83.114213 42.413270
77.452953 83.430786 49.087453
77.779881 83.070181 55.458057
77.998578 83.738131 75.537260
77.619411 83.372898 76.755868
77.141292 83.908570 80.209443
77.058480 84.911730 9.795772
77.153618 84.382238 12.545963
77.171304 84.731748 22.314695
77.720079 84.512676 23.727274
77.408049 84.596390 24.284500
77.119744 84.659447 38.142721
77.729389 84.649654 41.094316
77.281088 84.044888 43.305668
77.075404 84.002377 56.335449
77.913605 84.192002 74.568802
77.267742 84.703822 82.202555
77.196453 84.244481 91.219141
77.178943 85.562988 0.917198
77.837238 85.736571 6.342855
77.383994 85.311568 13.940175
77.524211 85.531472 48.458270
77.406359 85.308692 60.672055
77.970370 85.861543 70.225591
77.697689 85.602491 96.781269
77.817281 86.783045 6.580515
77.381245 86.726395 31.836893
77.416474 86.674296 68.908241
77.498405 86.460602 80.487069
77.750468 86.581585 96.860465
77.082195 87.766377 8.085624
77.036778 87.231790 32.314532
77.769481 87.331563 35.665330
77.555038 87.753700 42.340145
77.184356 87.745117 95.614425
77.951265 88.307497 8.885675
77.678712 88.585251 9.544656
77.304760 88.999001 33.278517
77.343762 88.679130 34.331795
77.061457 88.338341 58.927834
77.296210 88.984064 64.962803
77.130071 88.507142 74.926877
77.768528 88.724093 75.418080
77.793474 88.319082 81.857246
77.697410 88.614674 82.016803
77.206738 89.434758 2.387081
77.593214 89.996052 16.007619
77.900194 89.488757 20.419013
77.771695 89.251789 28.595463
77.296526 89.856545 38.447866
77.067165 89.424846 46.917819
77.327264 89.325844 48.760849
77.457718 89.134713 60.641903
77.255538 89.670919 66.359225
77.291618 89.998121 67.888707
77.361346 89.212426 69.086805
77.741026 89.480972 75.089841
77.206543 89.002160 80.666828
77.158077 90.360266 4.244546
77.061778 90.833411 9.514091
77.680971 90.249339 14.592682
77.041546 90.124349 65.307435
77.729724 90.339964 75.247900
77.007930 90.113734 77.098825
77.325557 90.260428 81.742282
77.637856 90.194621 82.430865
77.855580 90.619959 95.710335
77.144554 90.061436 99.269286
77.178014 91.855474 18.135852
77.650361 91.320222 19.101254
77.308095 91.032479 27.450870
77.786563 91.584813 44.682011
77.200139 91.641268 48.528311
77.917021 91.619720 57.569324
77.823673 91.003580 58.782901
77.212681 91.371698 93.972050
77.703109 91.920798 97.810215
77.660490 92.372386 2.699306
77.534561 92.702150 5.827453
77.377105 92.052285 12.518960
77.679772 92.756279 54.142901
77.441005 92.884517 55.919258
77.277022 92.316214 59.306590
77.575789 92.848794 60.088274
77.405709 92.390750 68.985638
77.954951 92.501136 78.061845
77.223867 92.850740 83.298932
77.451904 93.234417 4.552013
77.599789 93.054547 5.160290
77.645567 93.197364 11.381389
77.825246 93.598437 29.623577
77.076167 93.956164 37.888103
77.815073 93.094358 45.057290
77.263891 93.899921 55.342233
77.429369 93.374479 56.174724
77.049295 93.023379 61.663235
77.105504 93.379475 71.864370
77.423402 93.056642 72.266803
77.871587 93.241344 73.384136
77.446867 93.676832 75.569867
77.528876 93.430017 76.003723
77.449343 93.801293 82.100811
77.346861 93.535550 85.554038
77.335338 93.472511 86.513821
77.149074 94.202988 33.751657
77.885183 94.794407 36.545199
77.561745 94.850141 41.559327
77.580354 94.311858 44.147140
77.644878 94.838782 46.020791
77.553704 94.490524 67.289887
77.100986 94.276977 73.256798
77.027536 94.737593 95.854969
77.676855 94.809564 96.277948
77.809907 95.064768 3.573800
77.914528 95.857125 33.574027
77.231879 95.248728 37.772694
77.664090 95.672185 39.246874
77.964121 95.371688 51.161255
77.815756 95.397498 53.253356
77.084195 95.700471 62.876170
77.369801 95.822422 78.332055
77.691775 95.501295 87.493966
77.942114 95.840012 91.324223
77.506481 96.546187 11.690869
77.016143 96.682986 20.945910
77.463713 96.893039 22.980107
77.910000 96.598485 27.374627
77.738134 96.324088 31.572173
77.126286 96.476020 50.867312
77.938168 96.527015 56.287783
77.310726 96.019753 60.764891
77.864344 96.057053 71.091824
77.785350 96.511707 74.620629
77.493377 97.507055 1.754017
77.646800 97.125391 11.082706
77.560062 97.907859 35.981723
77.243862 97.743845 37.920465
77.634634 97.232114 75.162716
77.885660 97.594432 76.737944
77.278387 97.049546 78.068752
77.549001 97.172551 93.102486
77.206649 97.144339 94.688667
77.373471 97.249261 98.178558
77.403144 98.520329 7.573259
77.270649 98.816763 15.140174
77.828770 98.199082 17.348253
77.273178 98.744192 18.859333
77.188741 98.799299 32.680466
77.852328 98.983873 37.923739
77.541465 98.047025 89.446352
77.555052 99.396128 7.847169
77.580354 99.083732 18.114086
77.565816 99.972335 43.104853
77.174098 99.105564 44.090865
77.792573 99.841729 68.567910
77.416192 99.780110 72.257961
78.590771 0.443216 7.423156
78.251514 0.051316 19.511209
78.415056 0.973876 21.720917
78.628110 0.556403 22.716732
78.525377 0.421218 39.737500
78.851827 0.675863 41.789231
78.948335 0.023451 42.831990
78.261423 0.181421 51.811142
78.742726 0.467498 77.956111
78.466090 0.167301 84.266068
78.931167 0.953589 91.252907
78.954320 0.121496 93.968146
78.692536 1.362063 3.085060
78.766429 1.682498 17.940209
78.310635 1.352298 21.750448
78.448080 1.855193 22.624709
78.620648 1.202691 37.566787
78.863373 1.451380 57.730321
78.932410 1.471377 65.681099
78.749814 1.938403 83.002573
78.795052 2.093075 1.739499
78.350713 2.444859 2.860975
78.752605 2.625016 5.766348
78.973073 2.041750 11.518122
78.678447 2.576505 12.608369
78.521969 2.671018 15.239515
78.421484 2.075880 23.533694
78.705712 2.324944 26.782662
78.600400 2.581082 38.954798
78.061378 2.382442 55.167964
78.177639 2.808082 57.240772
78.803636 2.702891 75.005148
78.874379 2.340612 84.541786
78.610328 2.389002 92.467110
78.042903 2.864546 93.508011
78.809136 3.838526 15.366536
78.248408 3.768608 30.609143
78.638315 3.012649 33.182090
78.518405 3.511698 39.933265
78.591911 3.827785 45.260848
78.461894 3.043618 47.632917
78.079311 3.225021 48.847516
78.514357 3.690869 61.822273
78.154651 3.638864 63.091998
78.938814 3.347741 66.065935
78.256807 3.168438 68.798182
78.073522 3.657090 73.719021
78.530032 3.654331 75.569409
78.734853 3.986691 78.759814
78.277406 3.560564 87.568576
78.879226 3.957188 90.425711
78.717664 4.203224 5.065965
78.038082 4.955648 11.171895
78.887907 4.110171 13.247374
78.708440 4.385789 15.211454
78.990644 4.167571 18.861541
78.565386 4.073957 20.622465
78.340553 4.096011 28.671816
78.649236 4.101499 31.837897
78.532259 4.680643 33.670037
78.191992 4.121787 51.461131
78.389058 4.620347 52.833758
78.497388 4.203719 58.238212
78.173525 4.394301 77.833632
78.194962 4.087085 88.931665
78.954109 4.556391 94.319528
78.145796 5.533888 0.011482
78.136962 5.132893 26.622541
78.527262 5.721957 32.922894
78.516584 5.987907 38.341737
78.054513 5.682231 40.639619
78.963321 5.104714 72.251540
78.555033 5.463063 74.776001
78.311795 5.471057 75.180772
78.711232 5.475782 99.038393
78.225766 6.453573 2.632579
78.908797 6.693047 18.366492
78.542380 6.161347 22.979595
78.516957 6.373427 36.764007
78.504305 6.676285 38.911865
78.415449 6.756689 47.424932
78.853861 6.660358 50.013788
78.747316 6.983505 66.449654
78.334329 6.391012 69.708980
78.941463 7.577612 20.275868
78.180756 7.109284 34.180397
78.855364 7.694951 53.561049
78.156607 7.301713 58.068641
78.805147 7.646420 74.405073
78.828852 7.250783 89.067432
78.479296 7.408515 90.196367
78.677443 7.902731 91.192895
78.713455 7.493188 94.098817
78.182959 8.763942 4.381350
78.896658 8.347360 38.412436
78.070331 8.111380 74.707949
78.353165 8.946271 81.694046
78.410930 8.710428 96.402327
78.530106 9.131514 0.451663
78.236615 9.667394 21.741305
78.260457 9.942990 27.202892
78.683334 9.303030 32.400663
78.982034 9.088788 58.080648
78.932007 9.460495 64.225111
78.125184 9.850480 88.359538
78.859023 9.815539 96.073422
78.271185 10.876392 1.254576
78.417705 10.523854 2.578306
78.357371 10.705197 10.997835
78.905379 10.477855 34.559918
78.292811 10.758028 39.190889
78.515024 10.112851 45.420713
78.601409 11.472977 1.588905
78.240145 11.316841 2.266955
78.026724 11.658183 24.132259
78.417273 11.058958 41.208277
78.957960 11.072472 47.877382
78.151435 11.827049 67.944852
78.305897 11.033022 79.524658
78.652936 12.081707 29.287459
78.209498 12.645374 51.582754
78.500489 12.648298 61.788314
78.601472 12.231686 75.088877
78.933395 13.522463 19.632905
78.331188 13.199191 26.353687
78.054916 13.145768 40.361431
78.737654 13.592014 53.557428
78.412539 13.848675 80.090516
78.700033 13.851861 81.291352
78.638986 13.793785 95.177409
78.620346 14.604616 5.802624
78.621374 14.515380 24.936531
78.363878 14.221197 29.120947
78.929317 14.375244 51.660766
78.767663 14.572837 62.093418
78.601078 14.829813 72.682274
78.496899 14.016857 75.236580
78.563360 14.056295 76.902210
78.282518 14.652978 80.348725
78.210124 14.209779 88.339548
78.585236 15.481530 18.735367
78.168922 15.238805 19.708124
78.863565 15.380003 27.054536
78.574607 15.826160 29.157900
78.297393 15.450591 36.078369
78.092358 15.039535 37.787259
78.949783 15.569458 40.158129
78.054666 15.501838 47.582310
78.027607 15.913856 56.357869
78.571996 15.977020 58.731890
78.972080 15.398889 62.817991
78.160110 16.513944 41.864773
78.711013 16.310501 48.053060
78.399589 16.387544 76.100123
78.857634 16.610026 79.685552
78.788486 17.828272 3.010318
78.575988 17.528700 11.271094
78.492530 17.609219 14.971790
78.385114 17.929518 26.872919
78.988123 17.615801 41.342003
78.392078 17.183389 42.034306
78.754942 17.350740 44.522631
78.561013 17.758096 48.456204
78.432469 17.801793 56.062745
78.065689 17.614414 57.162830
78.115781 17.176456 74.107718
78.492753 17.455819 91.396338
78.691527 17.094441 96.032112
78.966488 18.406540 19.403781
78.038551 18.839990 30.117909
78.038367 18.598689 50.145079
78.873090 18.856371 56.278155
78.261559 18.144879 63.569877
78.071086 18.478338 72.291505
78.044589 19.035639 5.211483
78.587198 19.521474 19.057374
78.827080 19.207037 21.146343
78.068416 19.314034 25.362833
78.638422 19.191234 31.497275
78.858216 19.429543 34.553780
78.744755 19.936405 54.932178
78.501196 19.064540 78.063244
78.148820 19.854929 79.067398
78.000211 19.721820 93.946575
78.239801 19.991893 94.563226
78.865730 19.770064 95.756356
78.797205 20.303872 23.459687
78.852245 20.383142 26.340794
78.383539 20.397889 29.015679
78.571654 20.309963 31.937192
78.479871 20.188212 34.951068
78.801295 20.356543 60.315581
78.632904 20.825630 74.667309
78.749269 20.496065 99.694295
78.925380 21.070284 1.215362
78.613846 21.649380 7.296362
78.393204 21.357257 22.230296
78.661509 21.461446 55.102335
78.026673 21.668740 64.010319
78.674864 21.992961 74.541289
78.780540 21.999985 84.970747
78.356367 21.230720 89.277837
78.174617 21.287706 94.187687
78.821791 21.534846 96.210615
78.761332 21.395906 99.473430
78.383888 22.287148 0.060367
78.014201 22.733720 1.692966
78.572798 22.965028 2.028932
78.849729 22.616219 11.894720
78.469254 22.799769 12.172659
78.549379 22.819251 14.852807
78.875516 22.545011 22.047047
78.207339 22.217430 30.226616
78.553646 22.345961 35.961813
78.619567 22.041805 36.798755
78.051104 22.902348 39.869128
78.096527 22.043282 41.219451
78.840825 22.041766 47.117562
78.832314 22.526940 48.980541
78.967554 22.031786 56.762863
78.278732 22.214647 61.057817
78.297747 22.028697 83.222649
78.339855 22.141105 90.481039
78.562258 23.719519 9.385075
78.733392 23.942355 21.449752
78.258474 23.895798 28.666779
78.957612 23.249180 44.048990
78.562912 23.290929 66.111358
78.772148 23.831133 69.977839
78.931264 23.214149 78.654734
78.229948 23.368064 93.844155
78.877768 23.136882 96.782223
78.307090 24.250483 0.805804
78.905036 24.241978 2.994266
78.994256 24.899110 77.910967
78.929432 24.133604 78.618152
78.311862 24.330589 79.686043
78.218488 24.807787 94.229941
78.613027 24.096650 95.400925
78.445785 25.947179 2.564880
78.835238 25.380299 20.577444
78.772841 25.633697 30.089349
78.679012 25.898446 43.418752
78.945649 25.528774 48.751810
78.136836 25.914007 73.052289
78.458132 25.029986 89.325861
78.939995 25.093418 94.485435
78.494366 26.666303 11.339689
78.137289 26.527896 16.600799
78.839714 26.931135 29.712124
78.243183 26.322496 41.371221
78.550983 26.741671 47.813083
78.023925 26.627931 53.046309
78.967197 26.567534 65.767387
78.418667 26.453403 67.761748
78.799984 26.117610 85.822097
78.294393 26.423704 89.633966
78.116159 26.282663 93.365780
78.670078 27.276477 14.444267
78.843449 27.410540 21.822918
78.863416 27.706955 53.621194
78.072196 27.142731 55.294745
78.908791 27.981006 59.385952
78.757034 27.193791 68.695556
78.929167 27.145928 89.700531
78.218795 27.106304 92.573577
78.015392 27.261844 93.241551
78.588486 28.662382 17.179097
78.859416 28.204538 29.580303
78.396090 28.624956 30.045054
78.731828 28.067570 35.585620
78.635114 28.538833 40.176212
78.597534 28.395345 44.765234
78.149117 28.699873 59.010653
78.914396 28.757189 74.687511
78.914835 28.315339 80.052347
78.815053 28.625327 83.488784
78.151266 28.124665 97.009431
78.566153 29.244933 1.690499
78.687363 29.739511 7.563087
78.046211 29.756047 11.157842
78.796841 29.865062 24.384452
78.003754 29.658550 44.485439
78.010341 29.036721 49.088868
78.356904 29.498471 73.758596
78.209819 29.569426 76.348903
78.209664 29.393711 79.329132
78.476847 30.975668 4.035913
78.001159 30.750907 9.380310
78.060031 30.652312 22.586530
78.512396 30.225290 25.293693
78.016930 30.987901 30.003297
78.697968 30.553974 40.963507
78.248721 30.434363 54.751143
78.074726 30.405866 84.736652
78.551175 30.657584 88.330005
78.838478 30.163434 92.888524
78.425651 30.865403 99.382634
78.337882 31.039823 18.096629
78.237021 31.074819 66.144959
78.945592 31.490896 68.962010
78.949339 31.651651 69.618275
78.666697 31.902619 73.369158
78.798727 31.413843 74.543513
78.294958 31.213724 77.697977
78.932546 31.376060 79.859307
78.680295 32.701535 10.132320
78.027285 32.035089 18.816442
78.835143 32.434945 33.236521
78.575867 32.047431 36.282893
78.032130 32.178223 41.975411
78.930426 32.511867 50.411625
78.333097 32.405635 57.449434
78.425168 32.651528 90.791513
78.971695 32.525216 95.075823
78.231285 32.026960 97.282435
78.054645 33.644667 3.526028
78.656157 33.649867 16.702066
78.524283 33.321498 25.986071
78.302370 33.825117 33.546267
78.011018 33.448057 35.186272
78.700532 33.239456 38.582737
78.683875 33.592782 69.863284
78.725843 34.059982 7.833550
78.614650 34.787213 10.156863
78.986293 34.552861 21.107708
78.981575 34.659118 29.190832
78.776971 34.081969 36.349642
78.008090 34.994012 42.557682
78.665183 34.171461 50.131389
78.626429 34.928419 56.783031
78.995968 34.872072 62.592482
78.518776 34.962004 64.063155
78.064180 34.063414 66.067673
78.206161 34.326995 82.917072
78.996561 34.172061 87.110519
78.261488 34.276915 90.830133
78.564935 35.791110 2.426848
78.933930 35.853520 5.905850
78.502737 35.705471 8.757155
78.168633 35.369475 30.335925
78.205825 35.963602 32.013507
78.759445 35.558879 33.367297
78.066702 35.075749 35.584701
78.157214 35.338356 59.957695
78.159148 35.636518 61.509755
78.693700 35.868760 63.455899
78.996937 35.116526 68.222956
78.719373 35.341757 80.177284
78.927429 35.157436 81.699550
78.803000 35.084088 93.876282
78.999218 36.920111 18.944973
78.286465 36.309100 20.797816
78.184630 36.613545 32.384416
78.201874 36.380584 44.040804
78.902600 36.121867 45.837058
78.981210 36.899691 52.791022
78.227714 36.266277 79.827053
78.550044 36.915868 97.566284
78.461947 37.132704 9.622322
78.161053 37.032096 12.803140
78.167222 37.130433 17.120084
78.139137 37.064444 25.858212
78.490748 37.125317 31.365514
78.129131 37.697508 40.179383
78.704671 37.908057 44.534264
78.062992 37.222660 46.238922
78.154640 37.292677 53.723745
78.677077 37.448408 58.507418
78.316785 37.912538 64.926698
78.978641 37.842036 79.796948
78.590925 37.104027 96.513517
78.667145 38.455383 3.424602
78.942933 38.038926 5.535265
78.997178 38.087730 7.916327
78.182673 38.392374 19.040470
78.455366 38.409768 21.091659
78.636625 38.838643 26.990371
78.004598 38.774621 28.455704
78.967053 38.674627 54.511256
78.933899 38.110466 55.984921
78.754795 38.089855 78.888745
78.909864 38.382897 79.651248
78.366448 38.491831 82.859308
78.472663 38.185996 85.238324
78.271946 38.543044 87.748744
78.880564 39.033889 57.722393
78.951037 39.026268 67.400096
78.357376 39.688619 74.252504
78.834545 39.255554 77.058295
78.392921 40.016698 1.902909
78.459748 40.366609 2.977923
78.656491 40.649495 9.635604
78.570819 40.261577 19.914812
78.427639 40.063601 36.440578
78.710476 40.387178 45.150713
78.016707 40.675717 59.027957
78.252395 40.120386 60.640782
78.866582 40.369692 68.954002
78.742184 40.426674 89.553448
78.697757 40.775780 98.534086
78.019417 41.927768 0.824260
78.307744 41.088754 17.808101
78.249135 41.370338 25.717448
78.847919 41.279046 27.512749
78.951165 41.141192 29.746753
78.981212 41.030869 35.004077
78.297045 41.690077 36.040065
78.822914 41.812322 37.720456
78.842181 41.531290 50.291895
78.719271 41.462819 78.880689
78.126745 41.145748 81.164224
78.829988 41.606798 99.968133
78.500013 42.353774 9.877480
78.833828 42.415544 26.835363
78.778828 42.340763 43.000305
78.701126 42.366378 51.512368
78.465655 42.559494 60.941432
78.021741 42.041814 70.115062
78.714306 42.206226 78.061009
78.124154 42.437558 79.733651
78.236667 42.663794 84.914030
78.086870 43.417752 0.901000
78.827666 43.206614 3.539886
78.798941 43.978505 8.419238
78.938506 43.493612 11.347160
78.712492 43.674213 24.531077
78.267433 43.054631 25.274635
78.525125 43.883422 55.370193
78.238843 44.706703 4.913331
78.491031 44.058505 14.927791
78.551238 44.531294 18.854095
78.276568 44.963977 33.536285
78.838807 44.039610 36.122196
78.049442 44.230726 45.361545
78.968800 44.130340 65.735791
78.434596 44.371670 66.482960
78.475070 44.284967 85.044136
78.962780 44.520600 91.759523
78.402826 44.619353 99.361322
78.030861 45.385912 0.712896
78.575759 45.018992 38.941474
78.666846 45.776649 44.792065
78.610926 45.763444 58.653187
78.493259 45.370163 73.551282
78.857216 45.402352 83.705857
78.624122 45.617357 91.896146
78.505869 45.798558 93.290123
78.713978 45.384358 96.384600
78.046121 46.569447 8.928967
78.725966 46.574273 12.580492
78.125271 46.616428 14.573806
78.960927 46.667754 18.547041
78.891389 46.089850 23.057490
78.627226 46.601250 30.272989
78.545412 46.339188 32.904090
78.392101 46.140995 42.873106
78.533587 46.698217 50.054952
78.859572 46.164292 55.592965
78.240816 46.973767 72.313090
78.046976 46.928041 74.261108
78.094040 46.285875 78.819072
78.604881 46.309884 95.088011
78.066359 47.241325 7.201354
78.547871 48.455568 11.828814
78.893703 48.690905 37.907622
78.160028 48.486734 40.948622
78.797390 48.742051 79.022246
78.086570 48.465954 81.578986
78.592111 48.936887 86.996717
78.541071 48.751240 88.335122
78.750013 48.332546 95.281545
78.700481 48.327853 98.004188
78.489103 48.083051 99.337029
78.048006 49.786804 0.525566
78.758606 49.412029 8.580585
78.288330 49.229656 18.280819
78.350431 49.398299 22.959060
78.986281 49.768633 30.733396
78.109258 49.253997 31.656409
78.810684 49.506982 36.585564
78.898718 49.927366 49.543509
78.035817 49.447715 50.631306
78.054883 49.043282 64.887490
78.650121 49.228696 65.783828
78.189604 49.643729 66.027747
78.021706 49.620737 72.088088
78.779863 49.599925 75.431565
78.758365 49.431959 82.099940
78.647051 49.832288 98.282113
78.015233 50.512493 14.054639
78.570462 50.552286 18.715419
78.051641 50.285346 43.967599
78.180121 50.408830 67.776695
78.688828 50.834372 70.230037
78.635759 50.421651 76.731066
78.107587 50.367202 88.023817
78.105373 50.266107 94.621953
78.508721 51.312785 1.925859
78.208302 51.642795 3.312705
78.102289 51.101767 6.978559
78.027538 51.421544 20.311918
78.546939 51.674896 22.673083
78.222892 51.545144 26.941187
78.340365 51.199400 27.200229
78.545701 51.780662 48.999798
78.344721 51.075252 60.509831
78.452569 51.586042 83.331370
78.411950 51.608069 99.152968
78.801254 52.529727 6.012364
78.114399 52.420310 28.012612
78.569914 52.310795 30.611248
78.564514 52.767958 34.264093
78.914773 52.587216 48.404359
78.505794 52.206322 50.185921
78.170375 52.907771 52.418903
78.265264 52.437714 68.547270
78.352581 52.380495 71.045995
78.070749 52.378044 82.132388
78.193542 52.016138 87.974736
78.275860 52.300470 95.804128
78.542842 53.441765 13.887046
78.148360 53.835005 18.316779
78.180626 53.948005 24.071798
78.970933 53.458954 47.319225
78.934696 53.767705 50.097803
78.290739 53.213920 64.994961
78.102965 53.349153 96.700701
78.892771 54.606324 28.077486
78.938818 54.989157 32.136870
78.479361 54.235322 34.991559
78.245404 54.781453 41.524720
78.271182 54.956165 45.702362
78.575432 54.891000 49.087786
78.235485 54.378613 64.052390
78.286964 54.892086 66.443430
78.244930 54.845129 76.485725
78.444243 54.401406 78.782975
78.260239 54.223422 81.041690
78.070462 55.722770 3.629200
78.232923 55.879834 11.968676
78.960771 55.159946 12.077739
78.268041 55.473402 19.851655
78.526743 55.942601 21.522067
78.975523 55.090457 36.993027
78.174875 55.715243 45.137431
78.411272 55.554263 55.405691
78.237977 55.202848 58.004819
78.567400 55.986395 59.394365
78.901786 55.620385 70.062889
78.720150 55.194719 96.920322
78.873168 56.194519 30.622937
78.714229 56.277707 50.088998
78.703285 56.184027 87.739480
78.454725 56.062842 89.933193
78.937467 56.906330 91.283959
78.843150 57.940293 6.339633
78.660453 57.152302 7.346508
78.769441 57.601503 8.446396
78.363308 57.916323 17.266671
78.373539 57.922230 52.733568
78.561453 57.961779 53.669941
78.622661 57.624773 64.948818
78.976762 57.216996 66.775941
78.410326 57.039379 67.765964
78.726807 57.990888 82.104772
78.381122 57.714951 97.093856
78.887744 58.373709 28.158224
78.873194 58.826303 36.747559
78.723573 58.378558 39.596059
78.372676 58.336008 41.332630
78.770902 58.497725 82.287120
78.696843 59.436306 0.377968
78.731437 59.152472 22.026366
78.678446 59.042494 33.883943
78.247949 59.154859 35.478700
78.898850 59.105087 47.461220
78.273010 59.848165 56.036692
78.399382 59.110130 60.312450
78.632905 59.766695 64.185038
78.523894 59.189494 65.597405
78.988797 59.606140 94.533416
78.564300 60.900922 49.752294
78.428099 60.516201 50.142908
78.105833 60.864678 68.234006
78.569236 61.991357 1.943476
78.349797 61.559054 4.011315
78.320337 61.867211 6.635684
78.575718 61.929849 9.902904
78.381692 61.709475 40.277327
78.507525 61.989608 42.702908
78.222770 61.897125 81.710243
78.724633 61.278722 84.703444
78.910060 61.926110 96.736290
78.525859 61.927036 97.774561
78.844361 62.892318 7.753088
78.607649 62.236188 8.102568
78.509151 62.545967 75.733041
78.777956 63.988706 0.570221
78.662216 63.296207 3.946117
78.165447 63.384839 27.567189
78.091425 63.001990 29.413208
78.599337 63.313247 33.549277
78.282912 63.976750 47.434846
78.178949 63.232596 50.752641
78.996577 63.351500 55.231241
78.108820 63.674286 67.561820
78.987379 63.064826 73.903602
78.658815 63.985443 79.066975
78.376788 63.523498 82.423793
78.702640 63.706797 98.293214
78.674567 64.912992 1.060253
78.832883 64.334220 7.847051
78.134796 64.706596 21.321392
78.196901 64.227474 30.497360
78.855029 64.220801 40.174325
78.177003 64.688431 43.969642
78.434989 64.490441 46.501604
78.793451 64.173105 50.713124
78.894911 64.815950 55.238940
78.590386 64.657354 63.629564
78.522250 64.785678 68.043505
78.506727 64.009233 71.860003
78.304638 64.583164 83.068700
78.451036 64.998728 99.702249
78.220923 65.008708 8.351639
78.921282 65.593692 21.966630
78.369724 65.709355 30.710684
78.094545 65.478334 37.904348
78.911305 65.814162 42.328122
78.503239 65.838547 46.631801
78.986276 65.409786 48.215749
78.290496 65.133549 65.510504
78.344890 65.251473 90.037222
78.790030 65.330205 96.546477
78.015143 66.507261 38.855956
78.204122 66.755619 59.156998
78.750843 66.206168 62.187744
78.506859 66.994813 65.508661
78.502730 66.696675 80.832153
78.945955 66.756694 89.383343
78.750121 66.448698 96.285180
78.795612 66.090515 97.528775
78.851945 67.490957 22.031242
78.128066 67.860197 23.167875
78.259688 67.464750 36.377190
78.639007 67.957590 40.390313
78.698299 67.086391 75.191796
78.473695 67.902358 79.415963
78.886993 67.732110 93.078760
78.297793 67.414121 97.056809
78.236668 68.763572 14.704541
78.500463 68.638440 17.036297
78.403956 68.156068 42.783674
78.255624 68.071089 67.697211
78.851723 68.162109 75.084421
78.114669 68.935703 77.916017
78.221246 68.666958 83.622691
78.018084 68.847554 95.518133
78.318701 69.999920 1.234146
78.620128 69.519940 3.762487
78.358853 69.679470 10.461099
78.791659 69.124832 18.823174
78.731342 69.502022 24.486739
78.826994 69.106278 46.643663
78.587768 69.128228 47.283769
78.576905 69.473369 74.067766
78.539801 69.964953 94.902119
78.771869 70.844371 5.173251
78.457639 70.673297 22.259682
78.786140 70.105579 35.922742
78.985821 70.931845 40.704522
78.090556 70.195635 57.846214
78.178429 70.344906 76.506571
78.062966 70.206725 81.176391
78.064866 70.875792 87.757999
78.723021 71.751111 16.907815
78.837010 71.650536 64.524455
78.160587 71.171816 68.548118
78.592129 71.511181 78.198886
78.348335 71.275065 82.389055
78.177995 71.773422 97.297555
78.972058 71.470667 98.623116
78.015304 72.858949 2.253192
78.551101 72.517349 4.520361
78.374158 72.963596 8.574874
78.016998 72.682470 15.833689
78.008138 72.926864 19.945831
78.401461 72.253119 47.232649
78.914119 72.908259 97.426014
78.559942 73.135427 4.006166
78.489511 73.710503 11.271887
78.634208 73.495123 13.045484
78.544815 73.741220 18.810409
78.572830 73.436600 30.523138
78.215697 73.212978 50.319168
78.544330 73.795797 57.544663
78.064412 73.390195 59.377543
78.050660 73.038308 60.533939
78.306464 73.813350 61.275396
78.747735 73.212846 67.778495
78.974793 73.684078 80.655542
78.392112 73.617440 84.351758
78.300047 73.977814 89.367980
78.532692 73.223267 90.140551
78.882639 73.332579 98.528340
78.367326 73.658798 99.526764
78.103858 74.899419 2.154016
78.797769 74.820174 6.348108
78.242922 74.939208 9.423931
78.359166 74.746033 12.556938
78.205994 74.706323 27.669498
78.965857 74.356005 39.456097
78.652934 74.277086 48.937269
78.272011 74.147322 51.374705
78.795478 74.502382 54.286925
78.805299 74.949314 57.454254
78.600925 74.219507 65.989872
78.308292 74.045248 70.321198
78.622470 75.027271 9.459136
78.027234 75.182634 13.743316
78.318650 75.287830 21.757992
78.109040 75.628485 24.783037
78.744408 75.025776 25.873119
78.201931 75.230320 29.488220
78.765935 75.309168 30.159342
78.605492 75.667506 39.789185
78.518113 75.888186 54.104451
78.194796 75.304025 57.691999
78.821429 75.358648 76.373433
78.630732 75.908901 89.022799
78.943251 76.431955 8.913725
78.196035 76.814436 13.714182
78.135466 76.856586 14.224229
78.573355 76.774262 25.481733
78.915821 76.840140 34.496726
78.673302 76.753882 40.160826
78.491306 76.486251 42.894053
78.351418 76.531376 52.093654
78.064080 76.282184 65.885741
78.939780 76.461455 71.545984
78.023241 76.806528 72.196299
78.050224 76.048002 75.627432
78.555576 76.982834 78.484076
78.734905 77.456614 17.403479
78.207405 77.460535 27.740450
78.328365 77.461314 72.122815
78.799887 77.328657 77.293686
78.243087 77.713976 80.970923
78.804604 77.640098 88.168841
78.201130 77.428829 97.942776
78.627206 78.010293 17.968437
78.544874 78.283204 32.552613
78.435375 78.625009 33.861602
78.535296 78.098162 40.837798
78.857609 78.687467 49.452872
78.445801 78.297797 59.404989
78.761130 78.710132 70.195331
78.885591 78.577588 76.647657
78.799631 78.532233 84.580463
78.467765 78.479479 86.226779
78.469392 78.503091 92.582899
78.557922 78.978740 97.182477
78.245667 79.813996 4.302223
78.070373 79.164499 8.120651
78.269257 79.079494 12.389389
78.586114 79.973130 38.287966
78.169063 79.265854 49.074341
78.574933 79.576063 70.381365
78.646581 79.066002 72.969621
78.533123 79.097799 73.934189
78.513104 79.078494 94.603159
78.641688 79.672038 96.488891
78.850894 80.634854 4.670850
78.636223 80.729642 5.646537
78.976479 80.481887 14.653624
78.504073 80.670943 16.370220
78.199574 80.852612 24.217638
78.918944 80.236095 40.066866
78.038338 80.639290 49.473472
78.453352 80.405674 57.086092
78.251664 80.167051 60.872511
78.886550 80.267720 77.467900
78.270239 80.244998 86.883040
78.308598 80.131118 95.818857
78.958895 81.492886 0.000815
78.154634 81.876553 5.951566
78.529295 81.765342 68.593687
78.331814 81.838440 77.718370
78.545947 81.126308 78.016663
78.306329 81.609934 88.803191
78.285001 81.344238 90.659751
78.246191 81.977571 98.814107
78.828939 82.204981 3.309394
78.840462 82.891731 6.032583
78.822840 82.607005 13.721291
78.212399 82.639730 26.559865
78.719347 82.980204 32.664051
78.461887 82.680391 42.247672
78.521917 82.896002 45.715111
78.983080 82.165430 50.806827
78.299693 82.261227 51.274926
78.020581 82.698335 59.943775
78.676281 82.588785 67.335440
78.016039 82.613948 68.841507
78.159660 82.347627 77.275964
78.473997 82.308545 80.857678
78.502050 82.825807 84.721598
78.751507 82.135129 98.738022
78.546605 83.632565 11.674564
78.611448 83.132964 32.281629
78.064882 83.749643 40.707542
78.513085 83.161438 42.303162
78.647738 83.945057 70.807215
78.820386 83.802539 82.537256
78.516073 83.843728 86.403198
78.430206 84.497024 17.720445
78.381756 84.451072 33.017269
78.974986 84.833983 43.970152
78.797471 84.748992 64.888621
78.668625 84.622140 74.354786
78.601683 84.366389 76.438968
78.659441 84.050212 80.630022
78.290254 84.018556 91.114954
78.060539 84.722229 93.558380
78.826127 85.019796 57.460448
78.654408 85.519103 61.936287
78.492849 85.939547 91.750212
78.764215 85.674670 93.865289
78.463291 86.515618 5.829468
78.188030 86.943300 9.663957
78.483588 86.504469 13.167185
78.114855 86.987429 15.169930
78.800984 86.858781 23.393819
78.612989 86.565444 37.307373
78.107348 86.961235 43.142245
78.197762 86.522091 45.989597
78.502609 86.548646 50.068638
78.069285 86.721590 58.172675
78.870603 87.509412 0.479752
78.475154 87.631159 1.897494
78.345996 87.506659 11.805505
78.941521 87.994861 32.665211
78.934228 87.491566 42.138530
78.819433 87.775478 52.069024
78.046306 87.674185 60.652828
78.230371 87.173080 76.314987
78.373838 87.398963 98.708669
78.752021 88.799535 4.590057
78.571118 88.917179 13.582646
78.211246 88.462483 20.442005
78.907836 88.788858 23.137941
78.940380 88.141885 42.813712
78.867078 88.047637 45.216093
78.147232 88.126696 46.415326
78.014386 88.577084 83.038688
78.726770 88.520179 84.337038
78.268767 88.238039 85.653548
78.275320 88.122059 87.899873
78.869953 88.654666 88.284397
78.970440 88.207226 95.041154
78.429936 89.568558 27.469589
78.762677 89.960331 28.534583
78.358657 89.715563 43.211620
78.690201 89.330486 54.335713
78.882013 89.468441 64.686204
78.555606 89.610905 70.047615
78.774374 90.345070 3.701030
78.897483 90.583117 44.742308
78.039378 90.130337 73.797745
78.274838 90.026566 87.254022
78.869999 91.359432 2.797711
78.912902 91.196590 4.158749
78.574677 91.392291 8.351992
78.192614 91.727926 33.165331
78.035503 91.108921 50.347446
78.591243 91.027368 51.884664
78.988775 91.198534 68.213819
78.210659 91.538861 73.878112
78.948102 91.758354 78.177643
78.644854 91.092096 82.189238
78.644600 91.940979 89.522095
78.161570 91.196955 90.836075
78.709318 91.911816 91.750575
78.711085 91.372373 94.236587
78.871536 91.918144 99.025060
78.036981 92.075653 1.362685
78.969713 92.749116 17.225769
78.587180 92.045408 37.952859
78.544459 92.897734 54.572925
78.055272 92.719653 63.682946
78.737899 92.763273 75.462205
78.454558 92.817031 84.870607
78.864968 92.737285 89.169609
78.955278 93.755515 1.308162
78.485473 93.325392 2.718852
78.584781 93.201041 19.088285
78.368464 93.742570 22.747791
78.956783 93.298886 31.439797
78.943850 93.155711 40.968624
78.998532 93.276830 50.068155
78.910798 93.160219 67.435059
78.772852 93.927682 74.723430
78.526024 93.473758 82.700684
78.489315 93.528655 90.552153
78.848711 94.290584 0.760173
78.427118 94.181997 1.474576
78.023269 94.595541 4.818415
78.186155 94.401596 29.060672
78.659277 94.627534 33.143737
78.475902 94.334607 46.342045
78.855854 94.969770 48.050560
78.934887 94.625370 97.292144
78.010823 95.491219 5.453229
78.767543 95.529725 12.563981
78.417965 95.362557 16.713246
78.345985 95.156190 25.186217
78.857303 95.927093 39.664524
78.319670 95.850934 41.867541
78.853929 95.533411 56.921406
78.620108 95.886278 61.830032
78.556442 95.757215 63.494802
78.414503 95.734617 78.469452
78.029001 95.456342 91.788353
78.524320 96.605588 11.410139
78.999014 96.234704 12.431046
78.690318 96.127224 20.219474
78.800225 96.323371 34.580722
78.333708 96.413230 47.291563
78.834595 96.546701 73.180992
78.415827 97.927090 12.808947
78.474996 97.322482 25.782502
78.574383 97.467953 38.544784
78.007837 97.187932 56.660549
78.386807 97.012432 73.897870
78.143477 97.516127 91.715915
78.641721 98.667944 8.594387
78.157485 98.117150 16.910453
78.589454 98.302798 20.590904
78.430148 98.275451 23.110584
78.354280 98.755837 33.520168
78.304839 98.907402 89.311799
78.247971 98.572165 91.329626
78.413848 98.860888 97.788030
78.470522 99.517020 18.215627
78.472720 99.523711 48.910406
78.395707 99.655374 50.324165
78.141567 99.368545 51.266750
78.778337 99.692785 54.339206
78.817236 99.975809 59.570627
78.055817 99.630996 63.571395
78.486176 99.124153 70.308781
78.003693 99.476710 82.765519
78.775677 99.288590 89.232570
79.958800 0.705880 2.860131
79.060345 0.927475 11.153277
79.351929 0.878287 22.543188
79.336558 0.189647 31.387075
79.941721 0.312098 39.442951
79.463361 0.194208 47.873525
79.217274 0.797792 52.482317
79.613638 0.982025 56.854161
79.846450 0.150529 60.814239
79.293898 0.968067 97.163706
79.532359 1.843922 0.758099
79.588674 1.390108 6.415415
79.092752 1.750294 7.919582
79.526896 1.372470 8.286898
79.700561 1.792024 39.032946
79.352408 1.913081 72.547255
79.802003 1.268279 85.428150
79.588611 1.847008 87.519827
79.140985 2.378216 0.964823
79.384548 2.733297 14.660739
79.435141 2.949286 33.525436
79.054264 2.233530 35.192729
79.866547 2.984774 53.114802
79.241588 2.521455 58.246888
79.571847 2.255493 63.069673
79.975129 2.866451 64.797601
79.922934 2.266581 71.267933
79.516814 2.858510 97.100874
79.264489 3.350334 7.489688
79.055220 3.881732 16.324120
79.580484 3.497908 32.669074
79.614842 3.007524 50.951741
79.534308 3.681804 93.696151
79.146600 3.611228 94.278708
79.979868 4.794763 12.549451
79.997126 4.106942 20.309216
79.843552 4.319382 32.620152
79.334527 4.098684 53.954124
79.505395 4.436341 66.934842
79.432248 4.705013 68.076119
79.263392 4.542682 77.194246
79.265496 4.939039 87.095123
79.431363 4.909332 90.442992
79.472226 4.526252 92.061029
79.486437 4.314281 99.564554
79.809830 5.638778 7.944811
79.286922 5.777856 31.281713
79.881138 5.210077 41.990767
79.494478 5.767155 45.573463
79.398646 5.727852 53.316208
79.700953 5.357996 54.810537
79.412927 5.540038 56.276190
79.884890 5.671084 71.047444
79.556300 5.793895 79.530209
79.303787 5.005811 82.662064
79.555974 5.716549 91.055352
79.222201 6.926431 0.233941
79.395583 6.690758 8.703530
79.009927 6.817000 12.890379
79.560196 6.194639 18.070124
79.798046 6.676580 28.942296
79.894602 6.046860 46.998188
79.816830 6.652327 59.971451
79.267502 6.087244 60.378744
79.318673 6.315747 63.518585
79.982232 6.008261 69.514985
79.101508 7.590512 0.809833
79.045437 7.834724 1.213990
79.739707 7.702033 4.774208
79.421290 7.462852 8.770338
79.620227 7.228687 9.103498
79.113159 7.073858 16.530043
79.133356 7.901591 31.193330
79.941846 7.546894 35.081304
79.542988 7.582125 36.276389
79.965000 7.758926 38.637862
79.711656 7.228105 49.282754
79.944914 7.244016 57.592859
79.827602 7.875044 60.094507
79.165643 7.393675 64.807079
79.903623 7.285780 70.252922
79.644539 7.986704 82.077248
79.871430 7.384289 92.132278
79.511836 8.201990 14.247979
79.553977 8.049919 18.007267
79.480833 8.551198 28.110162
79.123880 8.218747 54.096128
79.110910 8.103204 56.321685
79.830691 8.366661 59.799286
79.404569 8.591930 71.383187
79.077322 8.641512 75.853263
79.692681 8.989355 76.734456
79.286023 8.004907 83.617036
79.335241 8.737114 84.986881
79.063343 8.122894 98.126723
79.510066 9.925001 6.815076
79.795424 9.162151 16.393126
79.595630 9.809593 30.071100
79.558755 9.196286 31.441505
79.791848 9.650425 38.044660
79.854976 9.512938 41.346379
79.621951 9.602241 48.829415
79.978258 9.059544 49.672086
79.175772 9.730196 79.393518
79.804898 10.816093 2.044118
79.095349 10.199332 31.703018
79.802155 10.701074 36.582529
79.271420 10.786406 37.092465
79.416372 10.604396 66.409528
79.764562 10.421683 83.918128
79.160439 10.956632 93.185942
79.350500 11.077882 9.373460
79.544387 11.911374 14.149123
79.909342 11.358830 37.658523
79.462205 11.466770 42.105608
79.746820 11.452536 53.165384
79.601175 11.572529 68.079830
79.318490 11.824239 71.254573
79.399841 11.848422 78.538908
79.508533 11.187682 98.843145
79.424577 12.459730 13.341734
79.445476 12.856362 29.447840
79.750157 12.348579 30.599169
79.592497 12.771692 47.390680
79.225640 12.552070 56.689614
79.234120 12.577569 83.041389
79.677741 12.194829 93.492882
79.167486 12.969731 96.474255
79.943550 13.765870 11.143392
79.830821 13.201476 16.868340
79.134679 13.654942 18.634350
79.550661 13.865883 28.773500
79.219245 13.557931 32.710688
79.688481 13.313555 34.380354
79.857272 13.392300 37.735806
79.264333 13.047602 40.289554
79.337324 13.864346 43.741872
79.593634 13.637940 96.244218
79.278526 14.427332 0.701904
79.508193 14.484363 21.364350
79.691782 14.632797 25.726545
79.043426 14.729641 33.961064
79.120265 14.361025 49.731449
79.122105 14.614145 51.735610
79.082942 14.425954 75.986454
79.499521 14.129154 88.541163
79.450219 15.938452 1.103958
79.631036 15.066729 11.465305
79.981367 15.427311 18.133419
79.445827 15.535030 28.658827
79.980480 15.449201 32.369265
79.957009 15.127117 55.599429
79.784602 15.540924 56.317807
79.209391 15.359365 60.511360
79.173385 15.049967 90.401401
79.054293 15.044662 91.226321
79.146583 16.787770 20.355088
79.159505 16.621555 26.072279
79.209596 16.468574 31.117584
79.187766 16.143650 42.519066
79.313746 16.766969 58.932044
79.045583 16.700983 78.938513
79.541532 16.827696 80.374461
79.090565 16.350591 94.390828
79.606912 17.174248 18.233998
79.943597 17.643680 22.317966
79.341383 17.110070 30.441210
79.948964 17.168871 40.679213
79.414559 17.075905 44.142976
79.034697 17.481159 52.520279
79.652611 17.440298 59.242673
79.598312 17.173470 68.145229
79.205150 17.378907 71.300420
79.809652 17.932846 85.651405
79.244015 17.078405 86.372165
79.164713 17.285597 89.888804
79.548326 17.020880 90.379429
79.006412 18.642973 14.019727
79.477178 18.723366 34.510115
79.119720 18.319097 35.605657
79.414446 18.957772 37.003527
79.626951 18.122207 39.144216
79.292376 18.119333 42.262381
79.351177 18.892376 80.730456
79.705061 18.151879 82.095693
79.147057 18.661684 88.133077
79.242311 18.757929 89.145047
79.002561 18.160360 97.025792
79.704354 19.943971 2.586655
79.472881 19.481379 7.529679
79.749717 19.725791 9.083276
79.850507 19.928864 20.354825
79.352221 19.042056 24.055094
79.918665 19.193451 29.191538
79.899826 19.275761 47.966838
79.687770 20.852613 5.434882
79.726083 20.729909 28.924963
79.444562 20.493160 34.548899
79.069451 20.241027 46.763698
79.909054 20.499782 65.213460
79.692428 20.798343 70.891829
79.606478 20.996975 81.426902
79.241866 20.282846 82.595204
79.248663 21.227790 11.515237
79.058876 21.464287 18.557839
79.069049 21.912239 34.718083
79.823967 21.481048 37.817148
79.907099 21.167858 47.876099
79.904748 21.575896 55.006960
79.258122 21.242959 63.373830
79.377010 21.836668 74.663514
79.881380 21.875458 79.073376
79.705950 21.379143 89.969510
79.908744 21.073535 92.195469
79.257722 21.941245 95.340170
79.780814 21.701435 97.823484
79.166524 22.734047 3.489615
79.827428 22.259653 10.411574
79.718443 22.601856 16.257000
79.221504 22.944024 18.435490
79.994834 22.345615 20.441925
79.184005 22.887990 23.898165
79.123227 22.194394 26.195338
79.288873 22.280917 42.467287
79.407644 22.704210 59.967718
79.799186 22.210478 67.184895
79.210221 22.362532 74.199359
79.996077 22.998725 94.848758
79.524754 22.316667 97.577066
79.134466 23.243639 9.046054
79.732386 23.659100 20.539644
79.886631 23.882080 40.772942
79.496217 23.013938 45.709019
79.682949 23.314794 63.799840
79.741266 23.359458 70.970853
79.299987 23.544849 76.558737
79.877525 23.713973 79.873551
79.247756 23.155902 80.820173
79.462225 23.111120 85.847149
79.024186 23.868211 86.865413
79.322606 23.927203 95.020101
79.732083 23.665306 98.676359
79.172749 24.536451 6.250446
79.089662 24.302343 20.807178
79.645958 24.118749 34.113976
79.387454 24.228707 39.928097
79.992872 24.789668 42.102252
79.587312 24.054304 55.696250
79.745198 24.155536 60.577060
