2.057621 77.881702 62.410169
4.407645 84.310000 77.899016
51.466754 57.892523 34.111699
5.785551 87.722821 60.328838
75.727338 82.135291 90.665806
30.851162 18.574647 0.575932
80.660315 84.268852 23.226335
61.028766 92.926826 17.385904
96.960670 23.674654 47.296617
36.118120 17.570548 88.492837
48.194072 24.754404 42.523980
91.304683 38.440128 87.092303
10.940574 80.668623 85.576663
34.156408 82.178268 82.389834
86.980857 25.324030 96.172898
42.225689 28.547598 39.336578
6.815687 87.962385 69.391124
97.216066 83.612218 72.641749
39.925068 5.694888 84.725153
50.358276 28.406693 70.573314
64.902686 2.132156 3.670005
57.086178 17.051745 48.342430
15.274873 36.881684 49.583439
88.976042 86.894309 2.585236
78.939995 25.093418 94.485435
93.630478 0.540954 56.674577
0.134301 98.520325 54.816999
31.058411 81.414233 25.707729
76.458226 26.870716 59.790516
69.061502 18.230546 52.963827
47.966614 53.235865 0.274769
3.220461 69.294171 62.499654
78.801295 20.356543 60.315581
55.525928 27.586850 97.400802
55.672332 19.729644 9.558381
62.206965 79.080957 61.732934
73.329151 18.492693 64.044520
46.837521 64.544740 10.752494
22.417049 40.897984 32.853321
90.364166 36.552436 37.468022
25.510523 30.460068 31.832885
46.958667 43.609054 9.726112
26.120594 80.579635 2.813905
29.277902 89.166459 46.343496
53.242654 63.977830 96.668245
68.534666 79.278639 51.278390
65.814315 20.393102 97.193292
17.861095 57.063772 66.801407
14.093942 71.749164 68.006065
33.513557 36.412163 31.198855
15.686353 79.754565 49.693809
60.935297 16.183330 61.328200
54.072388 86.121839 97.523284
93.506836 86.402979 23.711425
79.420218 62.525945 73.999368
49.732188 91.005028 25.136695
89.453875 52.237863 19.844130
40.103913 92.551573 78.430494
23.792558 22.723813 21.231447
0.913291 81.434747 71.158193
3.665232 12.610014 17.197586
93.940731 9.775820 34.437643
72.364448 63.307472 87.002776
74.584047 83.691662 60.975328
6.357477 3.673097 8.425381
99.822195 27.971792 72.797739
2.871006 53.101293 18.295184
39.697215 71.793419 59.349843
2.812034 86.480212 80.237671
95.987520 90.154648 8.324414
73.720686 7.549198 25.269738
74.655182 16.825204 40.622734
22.950399 43.964523 2.387807
19.330021 32.146556 50.193769
30.651361 11.413763 23.402851
11.453017 25.959771 7.744430
88.151275 11.751211 98.607619
99.006849 37.083152 9.122211
68.148773 8.099139 19.676737
51.652162 54.633472 48.400348
64.213373 13.257333 89.525560
46.000191 56.431148 89.685796
59.724604 36.974885 93.408286
35.716206 10.678226 84.324193
57.437353 77.341836 32.865265
51.309715 67.737593 34.763338
37.572245 47.949755 8.182966
61.903911 24.791210 76.305306
15.306709 14.023911 3.360850
94.989216 15.568243 84.889571
15.189292 5.676229 59.360192
91.183704 22.063620 45.020444
99.720590 66.415368 84.164995
46.504917 10.441967 66.603219
40.571063 96.478071 59.725840
64.915735 19.080539 68.814564
29.679963 0.327192 3.582628
5.760634 98.626154 44.573383
97.615313 84.979739 13.151369
60.514031 77.707979 42.752453
14.232754 72.967557 68.796156
58.768783 38.981642 12.366984
60.483798 73.746645 88.025028
86.957932 14.435777 22.570316
25.984822 37.930288 90.805622
62.393948 12.449283 40.503234
73.642125 34.126721 8.081481
66.885968 78.092476 33.495873
99.867828 50.009126 27.710269
28.804597 77.319623 68.994835
2.936591 33.503895 38.855323
18.392498 14.834262 69.922156
65.796853 0.466959 87.154197
19.568353 51.121825 48.427657
78.305897 11.033022 79.524658
15.753038 54.219599 89.892328
11.802419 48.242454 51.275455
4.829514 65.877124 27.682076
91.722981 94.319537 5.832245
14.710231 23.311456 8.242287
55.624831 38.569973 40.494463
55.152445 99.143272 58.663499
90.148084 26.443258 15.816212
21.277376 1.834397 26.770584
12.780771 48.437045 82.367351
20.555249 61.352525 18.120300
40.846162 68.188307 54.381364
79.609857 89.747566 41.670506
58.248778 27.134316 61.307969
68.134989 32.367159 48.845442
98.445051 6.784297 97.211392
65.103676 7.334332 42.472006
7.727373 17.742762 59.486420
92.955075 37.765585 58.322427
49.701848 89.831711 62.947757
35.149321 89.463693 93.264210
3.228324 67.000027 22.750864
49.668232 88.668772 1.078880
15.331770 72.698211 42.992388
87.309028 78.141899 64.370069
19.991421 28.908059 55.867999
51.847284 20.131093 81.324030
95.785802 0.369490 15.673984
93.016527 38.771039 69.608226
50.158023 36.334656 27.688548
76.025777 83.525252 29.386314
93.062078 70.166851 54.211969
93.627227 6.007705 76.809402
64.467594 62.909868 16.347773
71.193869 48.775188 84.176532
39.617303 64.631212 85.278204
80.503615 42.867773 56.470699
31.973902 53.283935 29.595865
12.589095 49.538483 10.990168
70.191781 73.168503 46.758383
81.633793 86.338726 35.274656
2.426573 34.600530 99.518826
53.299337 85.862094 31.766242
37.087711 28.222190 31.241537
49.163586 8.665258 10.411007
43.892441 80.581835 32.068308
32.481083 96.486626 93.319136
31.906949 74.137988 57.811532
39.702221 70.076764 55.151181
14.684323 84.915162 22.411373
44.191870 16.829618 85.139636
60.600128 84.249852 99.224475
35.218018 82.620141 7.463348
85.459791 77.811579 44.759209
15.097415 88.995276 23.896857
67.083802 9.093967 42.993561
40.952658 60.049840 93.902243
9.559346 59.609342 84.595301
62.196871 88.719236 91.498237
2.596913 80.302297 98.833531
45.287471 34.212433 50.867127
81.644822 49.907299 21.338488
4.161752 83.141030 66.908571
15.849652 73.340492 81.003557
9.938197 8.373523 87.562469
8.808075 24.667545 38.237503
83.525270 86.314604 68.562985
37.556226 19.763383 2.637417
29.943046 18.973518 62.432545
36.740944 7.757169 78.527112
20.194632 71.279989 89.815425
12.770147 7.866307 63.836587
67.982480 70.772532 51.489463
45.415069 18.596157 91.708657
58.559716 25.067241 75.287359
17.957913 93.973620 38.487205
46.494227 13.251282 79.163298
56.898229 85.080711 40.729369
9.971746 15.339895 11.962484
45.168055 25.440814 99.176627
89.731349 43.043534 89.755376
79.825545 45.659382 65.152041
36.570885 91.672378 30.333608
7.226114 75.938468 5.313607
89.296900 15.255163 85.339345
43.262131 79.297087 83.010055
96.465894 69.943356 9.840243
94.152525 65.163882 57.824188
71.482735 96.998482 89.194235
9.020482 89.434880 91.801363
35.634227 21.916259 13.308659
58.126544 4.165467 33.355870
24.437385 96.088766 67.662563
97.388032 47.114393 54.012903
83.729116 56.314372 6.288427
58.281323 52.874999 27.575979
1.585132 68.069275 34.453390
61.916190 67.237323 8.745371
94.321168 3.134773 39.498932
17.265025 14.220162 3.987638
32.611542 11.644375 65.089177
49.743952 43.288226 50.345517
73.984748 22.563793 67.748473
3.113297 26.682266 16.438879
75.997008 62.260707 21.019106
79.973825 79.969698 54.411131
93.052001 20.285688 30.100507
32.213863 41.029957 57.239751
25.020564 87.336850 25.623567
29.289542 12.227988 17.433000
2.901268 95.989132 65.057168
48.837539 98.281711 9.223195
50.323480 61.501528 81.335474
80.592918 60.633913 21.921848
18.945914 41.379390 81.767441
96.114633 93.023130 93.713450
5.431960 9.096160 49.501295
78.931167 0.953589 91.252907
53.173655 86.596202 44.085966
18.956912 51.767785 19.983885
43.136671 21.383792 23.667998
69.566910 49.593121 21.134879
57.646846 11.603006 40.716392
51.729863 41.894139 49.347444
78.677443 7.902731 91.192895
30.073489 91.381906 63.265128
56.445645 98.479102 72.389185
76.632928 66.621513 8.501191
92.912475 45.282087 36.344137
4.798608 65.914322 99.548396
74.571731 46.984562 73.387480
87.479110 22.509262 6.375833
6.793213 36.412173 10.125241
30.216819 44.623023 16.209821
61.200835 80.721596 41.439874
53.525604 31.135438 58.160535
42.434705 72.581519 68.927511
43.982111 65.214639 55.213121
70.720806 44.132848 29.695441
29.104733 78.099329 60.456454
65.228632 29.510320 6.379625
26.267436 95.722601 34.058884
14.602928 35.398096 50.825122
43.473794 79.190496 33.146838
43.433948 78.545296 21.553265
30.124848 25.722072 42.126155
97.457475 71.126801 46.044998
39.700675 38.634927 56.007434
9.880266 31.604442 36.164108
71.561390 32.746296 47.451744
21.390657 78.693562 23.136980
42.814742 80.789740 54.995958
23.948761 72.570072 89.099924
94.778240 89.709352 44.541114
85.533089 9.261411 15.275586
3.693829 44.187984 92.768010
86.090580 17.494691 38.562061
54.462510 39.402353 55.355493
22.390326 67.752202 27.248607
39.769979 68.014108 84.779353
45.321995 40.490943 23.994822
77.991801 55.746131 37.960864
86.240914 62.961120 18.794566
6.757216 42.226069 25.838145
90.095474 54.014350 11.976127
71.641842 87.008593 5.168990
77.951555 49.993621 99.283969
91.743994 39.125451 41.011404
98.057261 64.941136 35.850431
28.685915 41.116844 12.904325
3.980869 76.889296 28.410906
12.730745 28.438137 44.708522
61.629681 2.408985 54.375593
28.048364 85.987737 34.879945
82.158930 50.413046 47.631643
42.365507 88.957786 75.215065
3.724854 20.141117 45.556830
46.927226 25.416465 87.983605
46.952889 51.720899 19.008909
31.658046 73.217071 68.739792
44.055427 5.812589 57.908059
99.779841 68.613579 55.927720
86.123529 98.357493 59.393563
76.093887 29.490288 9.516832
84.091556 9.912701 15.015901
75.116948 8.836820 88.286915
36.574119 97.002305 71.308794
15.735331 96.894051 75.887547
71.030319 96.383672 86.854647
59.993145 17.415143 34.618620
72.669955 22.648388 73.596914
43.492749 41.783334 92.659141
6.844985 20.581184 64.366565
1.233435 89.033101 76.260462
66.268386 89.897752 2.592480
47.816215 74.979491 41.409296
29.356175 89.782911 17.205551
54.952570 95.707556 79.768603
0.536253 79.431500 59.778831
54.174098 0.199574 53.209402
93.109255 73.645962 97.650875
61.125171 73.728289 33.245151
58.288329 23.918269 36.420540
74.959032 95.779927 94.389569
23.612469 8.448694 85.141205
14.268358 13.934284 23.474374
8.547675 98.397464 67.287125
5.032824 5.696846 68.355229
63.431345 41.038008 63.372685
50.700389 75.863990 13.513242
55.646948 98.434486 80.471765
30.348052 25.203108 37.465376
43.882070 28.775070 26.600101
28.043592 7.286057 54.841949
33.459439 57.176088 73.054205
49.330432 75.049544 82.956529
74.483002 58.566308 64.571310
5.260564 40.427068 61.255619
53.838559 61.801740 19.690572
48.616018 50.631824 39.312681
30.936566 87.291926 84.796064
53.902006 17.471841 28.868594
12.084767 14.939434 52.348154
87.512086 59.476117 52.002513
97.417290 92.762789 24.260575
35.243199 7.404467 57.157058
53.769619 96.079593 60.259803
45.433282 90.617507 66.330144
82.403074 33.372620 88.211403
26.276184 92.754621 2.986084
27.267189 40.248866 1.035276
19.655720 73.794345 65.681246
55.042945 90.379557 89.399152
99.665667 14.128143 73.223191
63.106140 18.239666 68.113228
5.351173 41.838138 39.413220
87.143324 38.905973 15.033579
41.450995 61.436069 68.436011
78.272011 74.147322 51.374705
46.211649 52.459784 27.351345
1.096527 37.382826 75.144230
5.738418 73.482731 88.793658
39.686731 38.284644 86.324441
57.466211 91.429516 35.882504
48.957378 46.423023 98.432293
10.879750 64.102205 90.793792
60.202768 80.974100 40.949253
95.909159 55.398594 40.168452
97.292193 67.140191 70.166242
19.503893 99.757665 20.674917
24.299224 47.555217 71.700387
33.097704 48.045911 46.341615
32.065073 39.709378 44.339245
89.656654 71.062894 81.020195
48.460363 57.658551 25.246292
25.877643 47.585608 93.101608
52.657360 91.005281 93.974934
51.651590 18.899618 10.889566
71.654712 41.975921 40.342012
72.902000 5.828615 72.289522
57.700413 81.435617 59.770464
77.940089 51.027931 63.719375
72.095146 68.567358 53.441143
31.154227 34.138936 97.106499
82.402707 46.083029 12.770922
54.595350 62.801339 69.716060
16.191011 9.831084 15.869647
1.747330 80.378771 54.991424
63.244340 84.432751 67.667143
42.129204 89.001872 7.187438
12.079574 84.210408 62.860608
28.362410 34.105989 39.074689
36.612970 94.460066 50.728639
82.396926 26.699240 96.679810
12.332952 2.477673 96.616137
67.326366 69.861420 49.803386
66.795667 2.485317 54.852226
75.386919 23.029609 40.005548
80.362552 19.733518 17.162118
56.021729 26.448317 35.994200
14.189565 80.558670 58.526200
52.679574 50.062676 64.886996
72.699391 71.021835 10.209417
11.949431 81.989226 63.990673
69.347719 56.757095 10.171765
5.356059 90.842052 64.415430
89.786680 44.274176 96.744329
47.534453 81.154365 69.705878
40.306384 43.918457 24.885169
47.793923 61.671424 40.935531
5.282982 60.866875 71.756391
30.616669 4.796733 80.249929
5.616515 9.050350 9.376526
64.879968 36.937781 69.844604
86.730195 36.972783 50.018766
12.624978 31.924151 72.362605
0.423047 51.789081 54.697621
18.837793 85.493573 52.784464
55.786311 11.405767 52.179275
53.344621 95.364487 34.368072
6.142368 14.974913 48.063654
80.648891 12.614442 13.395820
69.736454 96.231107 22.564629
7.724953 51.372422 49.887070
9.511761 50.682467 95.130956
34.127204 27.000875 7.865426
54.406316 15.265317 26.201933
99.565946 12.066130 31.759479
57.707182 21.385922 28.615773
16.199650 71.878821 27.808127
49.564765 89.820619 8.832404
53.079711 6.706232 32.245988
31.290004 30.325598 42.275435
12.304057 69.655963 95.345542
28.720931 5.766892 75.789048
70.966948 59.037156 10.996654
5.237461 8.205376 69.283020
43.498521 73.030799 60.586225
25.080737 33.568921 24.758420
40.394274 5.063375 62.581325
76.184727 92.571052 14.758943
67.277327 72.589198 70.398419
80.199115 42.654724 82.646609
67.471915 84.546425 86.173550
5.258445 59.989673 18.829007
88.275536 62.725112 41.765428
81.627802 60.900377 80.797158
22.190177 45.990596 86.379849
3.304592 41.286663 39.371678
4.441770 62.339619 56.375040
92.803129 18.211939 71.363721
16.749617 95.910014 1.053585
58.770788 51.527793 29.220930
15.609777 57.590277 44.072844
19.144390 10.511477 80.439245
16.917691 94.631103 57.704993
46.039703 18.176005 21.599700
30.331848 56.481892 1.856640
83.799625 99.323109 20.398314
86.396644 16.284529 68.052889
65.301431 93.826863 25.460666
67.421948 61.532163 49.504121
96.441958 80.950974 94.604537
89.597072 42.862767 28.624113
43.641052 30.160740 43.320542
36.741254 44.744680 59.916854
99.436335 46.059192 22.074399
33.309041 56.916690 8.413415
22.473843 28.142456 50.375071
73.189736 25.331079 1.486011
3.049437 93.821149 18.876319
94.307347 99.153542 91.981464
81.692305 42.986787 67.852067
13.677704 58.871296 47.481419
11.862397 7.675993 20.130159
4.559735 4.413857 4.130164
74.577262 82.842128 51.050388
63.636091 27.504063 49.711213
40.730367 96.110423 3.544206
96.268176 71.436359 68.489307
14.783049 5.547193 51.051775
0.050875 40.071806 91.435067
29.501808 4.641176 27.716793
69.849748 42.326529 53.264479
6.387280 53.021908 78.438078
76.558622 34.538111 77.110785
64.213456 1.543189 18.208353
1.573089 48.771637 70.504261
36.202179 21.684036 45.152677
76.473248 54.926802 17.991734
86.801876 51.419385 61.538890
13.126149 44.672035 74.210745
17.563879 80.669863 98.559857
95.728335 55.222625 68.255287
99.533671 19.768377 34.526464
29.479326 81.179390 28.345123
58.502048 2.900007 32.758329
85.867426 98.679237 7.811499
89.431440 91.937581 1.704362
95.983376 67.136688 75.033321
6.940167 49.411762 57.311089
46.206804 85.461640 15.516680
88.247657 32.110358 48.200668
92.822601 93.127132 30.951899
38.035697 96.311602 99.801758
24.047968 44.257122 53.466868
77.162485 62.807619 67.002122
39.927452 16.695031 0.696407
71.092941 34.194376 94.536368
45.792057 87.041885 15.450749
23.466675 76.979284 58.313447
51.866519 65.472648 40.975059
74.236275 16.966662 34.656084
77.260140 46.068890 48.870762
2.823080 5.899159 21.580127
70.461407 43.292208 71.453592
52.272251 71.648702 81.479562
51.213719 93.679110 11.208774
34.178646 40.925087 2.121416
42.377276 36.044819 42.169113
2.379088 39.583656 89.311857
96.598239 65.088014 37.315923
27.216466 90.001388 3.368911
0.206927 55.029411 24.186866
17.765877 8.425899 91.441876
60.823211 44.963576 36.349522
46.087549 23.747823 3.987053
54.759716 54.142630 96.264873
86.857871 83.046012 85.048186
1.660607 47.080862 47.209019
85.007216 4.245235 21.023766
85.996717 48.465837 67.526113
1.808504 11.699988 68.653854
73.933409 58.242324 26.764106
83.121001 80.154818 41.435527
36.948080 82.049072 15.689263
4.057277 12.601229 21.142950
76.375048 56.742909 33.477794
63.382838 8.639438 17.411312
54.561449 47.532227 8.561930
27.990630 94.790757 95.705392
86.478056 38.594754 77.683145
63.176595 49.353747 39.567225
91.770619 95.767813 76.374307
62.911012 25.839262 35.276112
66.723173 13.558448 54.990518
26.980918 57.949013 50.617463
97.014034 54.787312 36.203024
99.975815 97.759170 13.166114
99.968322 82.440158 12.396993
78.780540 21.999985 84.970747
88.753691 41.059131 55.533406
63.486771 89.460083 92.052135
55.068391 45.025145 52.148600
31.778121 3.623310 89.358166
55.631549 94.672169 29.877802
76.195903 87.998288 89.659828
72.447457 85.981439 55.702356
29.423753 98.069102 12.780232
25.368056 58.727593 11.065437
47.616907 32.711799 0.425280
39.586042 30.293717 42.088354
44.844762 86.186504 63.508373
98.366955 81.873991 85.483821
1.681047 80.167154 28.779818
30.058711 4.061630 1.241206
89.765138 38.842235 41.114111
61.948781 9.971671 38.198193
3.886040 30.186566 46.162206
88.447932 94.774477 58.192076
7.859877 13.649784 39.298835
9.589103 72.065821 55.449265
2.145108 10.912315 34.485588
2.818825 78.011849 39.114158
47.330725 66.356107 38.806153
88.489565 51.471892 64.579544
63.735070 10.324097 91.627285
25.298445 80.610942 27.456299
49.221735 22.350092 4.785139
70.066265 62.179938 16.869032
30.946690 24.388414 49.490654
80.670654 51.829718 94.978319
10.449391 35.168200 9.388839
73.364240 16.620276 4.626508
16.547489 70.875442 35.703803
72.176779 18.006163 95.301349
56.740298 61.091173 93.146624
37.414045 71.096496 80.568573
51.752001 88.722374 27.058820
77.533212 49.536957 73.617219
3.362191 81.973503 86.627872
69.876854 94.893896 96.190142
27.138500 56.920548 41.900897
35.020416 33.409581 68.282713
8.874972 75.472237 73.744423
69.214717 86.220379 87.021309
0.107052 86.631165 17.734703
65.463445 26.350595 84.590243
47.441981 43.678331 68.759843
85.965045 56.323543 17.627529
75.694665 21.398987 13.692294
55.883556 10.783126 64.653529
66.781796 4.218525 54.967124
36.973580 64.367680 58.468389
90.422669 21.001747 30.734968
20.373701 40.041953 0.667216
26.825326 93.236330 24.593734
70.600282 35.585120 3.532642
55.620364 83.299906 74.008728
37.126119 73.350269 8.899796
83.063829 77.681910 15.159769
22.317567 72.957156 13.837413
14.200769 50.660597 61.529337
14.288105 81.210518 45.813639
81.646812 50.233460 41.216715
19.196180 85.367443 42.784586
55.669941 33.402350 39.975213
76.989970 12.977450 94.943738
82.317561 5.958001 66.327235
61.366465 54.896898 53.748191
63.979998 37.578662 63.243330
9.085596 68.688579 39.316077
46.137238 0.606205 55.907548
84.984093 5.277953 30.569124
33.663163 20.734239 4.277592
27.257445 31.036494 92.535748
94.864124 70.221517 57.297298
86.797348 53.573230 27.922181
61.516812 36.493580 98.740022
36.122195 18.201261 74.877603
78.635114 28.538833 40.176212
99.010853 95.287921 81.860789
25.639773 40.320096 90.738702
78.349797 61.559054 4.011315
53.134793 91.566588 14.819966
29.420437 78.232755 3.688818
78.910798 93.160219 67.435059
50.258271 42.404291 21.089626
45.744687 34.069438 47.445367
94.573933 86.221716 22.097351
47.314781 5.016898 5.788608
61.369518 40.957038 18.691765
93.210132 70.159476 76.286855
27.887403 33.167983 46.438460
7.231454 55.117988 52.699398
33.537532 90.908600 78.861556
74.387994 65.452150 90.940971
39.101588 2.632423 22.866007
27.695862 48.911189 11.563554
62.995609 5.038032 1.260730
29.754813 40.740708 72.280118
46.374695 92.618899 68.287031
61.412167 35.229808 40.388337
69.214597 32.987148 52.226615
22.937626 12.399126 92.258164
68.059977 4.939827 49.426730
79.639103 91.658777 32.427489
34.093344 20.824239 57.546728
66.542465 28.359698 10.429939
99.979773 2.501555 20.186749
81.000886 16.358773 98.439538
26.385957 89.895418 91.059133
39.323260 68.637573 59.531499
82.625040 22.728726 36.948626
75.642386 97.967390 67.351693
39.116618 76.861611 81.604328
99.274603 93.307326 74.566333
33.451664 91.802046 84.584027
45.693713 47.518976 9.223798
34.982184 12.841076 99.682145
28.429306 12.379655 82.392186
62.638455 31.243606 53.554143
18.018575 32.509752 72.261878
88.451979 17.354790 50.411997
51.057225 41.629784 25.600611
9.594884 17.006620 55.548042
33.006567 33.782608 16.011006
80.662028 99.630941 80.240132
59.383962 14.216693 71.204407
93.573250 67.343236 71.717726
9.805750 76.757656 71.201959
50.169049 63.631752 85.384288
97.768587 37.419959 21.728687
88.680162 25.008073 44.305643
67.078367 74.323357 90.399100
80.395044 92.210650 36.447955
41.824607 0.016702 99.451708
9.299381 88.567161 82.722536
84.727042 63.087555 6.276990
32.831612 40.300304 36.976344
47.617600 72.435488 64.526199
80.393387 31.626866 0.003637
45.089527 29.629539 69.310565
98.400349 89.067238 90.431480
70.263458 90.053647 87.383236
85.595305 30.308540 3.574168
65.938941 76.659028 84.033487
20.470130 34.758787 27.378021
19.527087 79.186035 10.334307
2.367083 76.525622 20.736282
34.714702 54.607658 12.647085
38.439699 97.274422 76.435641
25.688513 10.565047 17.844552
20.462536 80.655602 53.272499
15.590583 39.996613 0.541569
5.059489 88.939573 47.944442
80.102505 64.673107 40.336417
52.987091 85.603080 88.418278
74.183625 89.174211 46.367091
50.335924 74.380305 87.298505
85.672425 62.445837 41.069373
14.927756 50.690574 2.703910
93.132439 62.970741 69.102437
64.240717 43.096921 33.638343
71.121720 59.351828 85.154854
92.285100 56.236942 66.982172
57.628925 5.131711 42.319196
88.771127 67.547615 74.475999
35.798153 69.644905 77.472403
86.065919 4.521429 78.676492
81.864727 2.852006 0.116190
99.138246 12.945663 85.011638
93.230058 14.822292 18.110212
15.034310 43.746985 67.000332
86.855949 73.812560 87.854678
67.751780 64.373366 78.813828
56.403314 35.190668 90.611618
10.392365 26.315947 44.252965
72.271433 22.714053 91.778670
80.973273 55.820469 15.720799
9.406151 72.468311 95.735575
80.499235 18.537177 91.878324
66.533122 51.972912 44.308411
76.458047 64.416896 74.520484
72.670691 32.827057 49.302290
15.127572 54.995052 88.849358
44.961567 72.950195 20.004144
79.691782 14.632797 25.726545
64.773159 49.253663 53.420755
7.549069 84.898541 58.370888
88.218096 2.302155 66.549454
39.979410 40.912292 39.765207
84.148386 10.378405 4.449497
19.877494 57.020541 11.772194
5.633175 39.142959 38.869857
99.591725 87.031089 72.779767
8.243756 45.737865 68.983439
71.133484 14.088128 80.847275
12.189708 42.004262 34.854869
37.414810 68.916647 68.978981
71.267584 12.555969 47.140050
49.104973 79.207176 37.465768
29.785360 53.506230 30.704634
39.798733 18.369129 36.081161
30.342641 69.344300 22.906599
61.417752 12.082599 73.846325
10.252268 43.299804 18.309082
1.494621 89.632333 51.199435
17.415833 99.150834 82.856213
2.755473 72.237050 7.147626
24.913806 4.398558 49.617100
74.202983 5.332622 58.464522
38.511328 25.120877 66.561899
60.785904 74.876312 41.684793
29.569544 75.555792 20.524198
26.194452 0.991102 77.971095
67.692712 80.369066 57.099613
88.766025 5.537750 52.393503
4.719342 74.519570 58.681987
20.188523 46.419706 24.984525
12.555457 55.461983 68.627827
16.333610 13.228663 74.739524
11.826744 9.579370 69.301568
39.029461 1.036315 64.344131
26.682562 36.030156 32.760157
24.038944 75.499741 7.149074
35.889923 2.865318 67.668472
65.540426 71.235336 98.336538
99.445309 26.487783 18.308488
51.981572 68.539842 94.044869
25.638983 98.772105 40.388669
69.676454 33.257058 54.575589
30.138846 24.121518 74.943524
14.585253 71.106326 2.063899
45.585971 53.167506 10.818167
69.770945 71.001456 56.558270
70.828123 99.672238 83.249350
13.363558 67.745240 35.317347
4.580141 99.548400 5.598794
47.942154 46.491331 64.270629
42.896879 0.089043 78.382181
46.578561 49.186814 71.458648
13.671378 2.931309 20.229292
47.323789 60.233228 69.339885
94.859620 4.707775 30.751007
31.686130 80.806075 90.606865
75.453674 19.064898 62.794285
51.429157 14.867386 21.700379
96.905270 6.272256 30.504960
64.925831 50.327375 30.033408
6.429713 42.763876 89.218815
84.364738 22.805601 92.123765
71.945946 61.248526 46.017798
23.985765 17.441109 99.304928
9.097743 84.288528 58.534086
95.038223 99.291489 35.372562
40.945892 66.897550 88.611696
40.413555 72.210333 90.693283
9.213189 10.973587 54.447937
23.125237 53.961511 9.167279
76.510663 83.027019 75.362416
42.758184 93.646019 24.139556
30.974525 90.762988 50.420038
70.555042 85.462492 11.511127
83.034316 54.470111 46.900006
22.711767 8.412891 45.455305
31.537120 58.017874 14.607920
20.985273 92.362315 44.382648
51.966896 59.434913 8.541334
79.517713 94.813401 77.563781
36.868543 53.016690 82.632182
12.512639 57.882844 86.778557
51.228545 30.318096 67.320676
55.608902 46.568753 83.280697
3.378275 90.444434 85.360254
52.679538 42.660040 57.605684
5.595541 71.026988 16.494564
77.278330 27.675821 65.882172
73.915772 1.849327 51.976583
19.806422 59.480752 8.281296
97.658422 89.344776 9.201100
65.453473 94.201884 88.302949
28.311576 41.156942 39.161044
33.709042 93.846745 33.293812
49.649255 44.844186 41.651415
63.273828 44.065164 90.273572
36.905216 12.378078 72.706605
62.390826 60.052471 10.473770
47.785590 3.870308 13.422597
14.968006 54.108782 53.283095
12.914811 83.117223 15.516271
92.621280 41.983810 32.426610
2.871160 15.809643 0.509376
49.756973 27.417322 26.524289
62.435809 4.623994 33.888868
24.606899 59.497857 89.789604
41.205966 84.098040 95.996583
75.036017 35.162123 77.069742
63.810016 89.116925 44.623682
7.561973 42.120694 68.137622
85.589168 64.999439 31.297739
65.425344 86.394331 77.014039
24.527490 67.393709 17.396714
19.518724 6.280082 89.262095
36.521734 55.718560 71.609765
99.138464 33.210862 53.306134
11.477071 43.321494 5.298522
80.592604 69.820245 21.708577
5.582292 74.479540 63.600317
99.604069 5.774605 72.387433
96.580233 69.933236 66.705996
5.932358 58.638552 77.443683
9.523701 76.545391 93.389535
99.474907 19.900821 6.045002
98.543496 75.062770 26.358467
21.423065 46.995261 24.369180
66.710680 59.415406 54.341683
67.792419 53.618294 43.628678
88.535486 38.364871 15.981929
17.717916 31.668661 44.980525
32.100293 76.330202 46.695511
25.266015 5.855881 96.677701
26.991712 61.193200 88.129861
91.668976 7.867329 6.208137
58.183652 62.347832 84.198818
44.014823 66.235927 5.912394
27.232225 63.199203 69.147593
38.045426 30.387723 48.519188
4.967805 56.921576 63.444484
80.645850 42.402660 73.294130
13.558922 95.313797 84.402632
75.352105 96.254972 57.127532
73.117151 64.121831 36.103353
50.707538 10.348813 0.217945
91.015683 60.686226 29.378206
79.465705 82.373685 11.681194
4.484810 6.614055 61.428521
1.343846 69.135855 83.026812
52.986131 32.624181 31.714778
20.511819 98.470970 30.883902
94.095891 12.327619 19.166326
69.926526 9.279571 0.659636
53.919288 72.672907 50.697022
29.720213 75.117805 29.884768
5.419517 35.373591 57.530547
61.672859 32.455119 75.070226
87.282031 17.295225 41.379782
86.588049 15.500320 18.660726
52.854961 50.582066 82.189457
75.335682 35.990369 90.968941
67.997524 66.168138 20.833873
0.971770 47.428209 42.683199
80.155453 57.725051 17.295664
27.255838 91.503249 74.716466
49.613991 32.172191 4.382725
97.926418 86.016833 19.794525
54.119223 22.419198 5.795228
58.613987 40.446525 47.658198
59.518442 35.557160 76.097017
85.481702 72.025407 45.791070
31.706128 74.784601 19.930286
37.309435 55.267706 63.107644
31.827089 49.639872 95.559632
28.726276 44.776161 6.513416
9.481908 4.748405 73.333046
66.128615 68.675700 74.786374
36.099605 66.450971 88.142299
51.104891 76.278436 72.335031
69.349267 23.636769 6.831317
20.173441 41.224217 48.792494
80.026670 66.405165 8.146351
41.435811 87.415288 17.801579
54.938219 26.150602 62.603364
94.519355 32.029495 21.098757
3.430365 64.158389 44.143848
17.842281 99.085870 78.073464
46.081536 49.122501 34.717860
64.056628 95.633399 45.194446
60.152703 8.367112 88.054963
66.818720 71.527081 48.204490
11.801776 69.889045 4.365227
69.534581 36.999553 0.045028
20.055589 9.963392 51.601417
45.857861 37.880820 40.489781
65.322198 29.013659 58.478855
96.135938 25.075014 42.269072
50.165007 50.719568 4.086659
19.554402 47.186940 47.759031
99.325587 92.299735 51.649681
72.489281 9.858295 47.663915
85.812538 42.154164 12.240687
1.756675 88.271084 66.564124
22.046573 72.925053 81.037548
43.390139 35.278886 23.622302
15.505937 60.507320 80.222593
7.709077 63.843234 29.544377
65.078684 61.841799 10.986284
82.041926 4.254659 58.723993
96.131115 26.998916 41.337887
77.250275 53.095607 5.846354
10.435458 30.784275 11.281253
68.392040 83.108428 74.267353
80.731768 41.019665 92.323863
46.114112 60.093938 93.260494
25.841875 51.632734 98.345503
61.766550 77.932888 3.674143
70.986774 43.097962 18.492195
46.666979 21.441136 60.572649
18.890082 58.318208 32.576340
73.597080 57.498086 19.211598
39.732369 48.636864 58.858261
90.542928 49.941405 50.319637
4.317074 15.382971 57.549330
49.928772 29.676667 85.703056
36.449952 4.638627 15.146353
47.877846 81.740012 21.089828
25.856720 17.773752 80.623080
38.899181 25.841678 21.641777
74.131396 26.300264 83.196624
12.605699 31.645413 73.537297
8.126284 55.794468 15.540153
94.455736 78.010115 23.127886
0.572244 92.221347 1.639017
84.351239 24.275363 42.187569
94.523382 2.772524 48.683119
4.457843 77.811964 1.613516
43.047399 45.181775 19.149101
8.901641 87.389333 76.423744
85.602322 79.650556 39.275079
98.249599 47.483918 40.672842
36.405704 46.875103 13.488938
81.303833 80.363793 46.150835
68.174822 43.076307 50.120303
99.964147 74.775788 22.154107
70.279012 90.484497 36.908490
76.313052 63.650927 51.360985
28.453366 76.648963 70.945931
33.201515 46.054798 9.737192
15.535785 15.455916 49.287566
5.694026 31.121271 7.297755
15.313292 76.728351 98.992164
45.126175 67.996075 45.744863
68.331073 82.215861 7.651916
36.759389 42.646734 30.792026
73.519348 89.984539 77.893920
32.327421 34.625122 49.734375
62.867178 15.777246 87.952559
18.901720 51.384126 75.072896
21.531768 24.405220 48.852652
50.680957 91.732627 48.125388
48.722665 15.167445 65.462091
32.430407 16.421071 31.213837
48.890278 47.310574 96.625175
57.024065 6.484097 5.760529
84.445806 25.717639 13.903691
39.617866 98.429721 22.395586
13.623956 42.377355 97.523849
97.831108 48.708037 55.387176
3.779284 6.225841 56.896088
74.007485 23.779335 34.436840
50.051415 62.535001 26.797565
18.955115 44.804872 29.421104
23.727319 36.390175 11.167491
2.029548 17.059278 58.959928
6.786377 95.734654 11.804878
50.752760 50.920753 49.076594
27.041692 56.152967 26.868656
98.978827 55.838523 73.624156
3.844725 10.395590 96.514262
68.153604 63.714999 56.707435
83.526357 15.604796 89.018287
2.930626 93.791528 46.967733
41.161921 56.854624 40.873621
49.566063 81.124999 25.180570
38.364700 35.908191 13.797577
39.837077 58.235826 68.926348
99.513717 5.770217 20.921405
74.997673 74.645359 68.948776
92.824959 3.838381 96.724280
81.805992 93.870391 27.056276
25.784097 67.020509 9.722550
24.624677 4.553911 94.203389
51.387406 77.791263 16.136538
27.091129 99.099039 19.199127
86.790606 99.782542 48.315871
3.871827 26.268906 68.858968
17.862735 44.325169 74.011201
72.907364 94.154670 42.330059
82.043099 57.943458 84.777580
79.196263 98.490396 46.292607
0.787999 6.476813 65.775769
54.444544 65.215629 15.603270
86.982562 12.053869 59.392017
50.242755 80.513542 70.866009
94.885788 37.446301 20.273261
46.344177 56.999384 92.327525
66.188216 13.750535 92.647089
43.837511 79.879609 57.937483
0.754615 77.800450 42.791707
7.785973 24.519044 84.348115
87.312127 14.163346 76.009653
64.111032 86.472271 46.755685
2.916855 66.829563 34.301739
1.589771 4.415181 76.072739
56.608738 93.719588 24.816897
41.620976 92.441185 56.429760
32.406044 75.668360 28.932771
53.458504 35.180253 91.220616
97.384086 44.114965 25.787367
38.300271 42.994935 98.312919
16.351256 48.235192 58.820453
71.658603 5.263017 93.132075
44.357245 76.971856 58.972932
10.648135 13.821317 58.034143
29.586368 69.561733 45.899235
60.941798 88.889695 62.733294
34.310065 54.386564 44.490106
16.571496 15.939705 78.254684
11.575125 64.881278 61.974658
49.581074 28.205359 43.500535
80.237527 81.778583 85.801234
74.424520 97.163083 9.858028
53.090126 52.661568 69.594023
35.853692 96.748525 95.765172
41.779936 66.161075 85.520583
28.912985 14.394864 17.825841
48.256945 35.331898 86.541824
79.463361 0.194208 47.873525
84.677507 78.977797 44.571287
80.461046 19.257207 42.849068
21.396315 62.328936 39.212423
47.492094 52.035867 72.672355
57.093281 93.801868 59.659382
24.610714 18.774377 34.906166
47.489673 59.182579 93.965863
15.512488 83.742753 30.818242
8.718172 51.646253 32.992854
71.153738 80.326649 60.796523
45.613000 68.718076 12.417333
10.624028 51.611775 50.759690
75.027771 22.025961 12.966265
78.023241 76.806528 72.196299
8.649849 44.141917 97.555544
17.868932 35.836387 11.583405
78.072196 27.142731 55.294745
60.332277 79.572668 67.667329
94.414985 32.753133 77.647476
43.680866 48.361766 42.091626
95.381077 28.328800 19.018215
62.173976 49.884536 39.338803
94.237015 64.385355 86.272560
17.976053 38.949448 62.935373
86.425908 15.105492 72.271698
41.688863 45.419360 26.495130
96.674563 50.993414 29.801510
85.604069 37.545681 39.087686
99.135645 1.952906 78.181556
22.347976 55.469078 17.003486
30.146651 42.437890 3.047565
55.419463 26.258222 13.595544
30.997498 19.625843 28.263866
17.668780 95.573132 43.594580
84.079655 9.423460 0.868458
46.272749 87.783053 13.445411
98.073028 18.914695 16.293388
70.185959 53.740118 9.844584
4.453683 50.222183 76.788887
33.238731 38.258811 14.301400
28.675163 8.183817 77.788624
72.013701 78.045393 0.994051
58.785382 49.127324 31.837160
90.726264 75.007860 72.738922
37.945176 89.112740 94.349174
32.245735 93.733779 29.493350
43.739215 19.838405 46.140481
91.254962 8.949826 59.647471
34.170961 90.765255 71.826930
14.202768 69.024035 29.662010
92.645162 20.241291 53.243210
76.750832 3.347228 51.462628
48.655150 32.634534 9.041581
2.627407 28.005532 66.522207
94.681819 16.815550 13.408064
96.795880 42.755554 38.889493
52.202978 94.254028 51.151231
84.034537 41.858516 76.350443
63.313758 58.470498 69.084639
63.790656 46.112180 16.792964
79.705222 87.730249 78.722673
98.612996 59.229577 26.662319
52.508189 67.406460 66.699255
75.794870 89.599638 86.659550
41.773828 27.898635 34.706036
55.997197 27.121930 13.440727
35.995814 63.566123 97.724323
19.670626 86.619836 48.845221
22.775330 42.415641 10.321261
78.201931 75.230320 29.488220
70.148789 14.641436 3.677803
26.433215 27.719775 82.865174
39.508157 97.219086 63.579515
69.451931 66.098854 37.581152
16.449396 45.853037 26.272929
15.784814 74.632224 83.031390
11.355238 31.392048 24.001523
5.330099 31.970438 68.074367
54.656013 39.845149 83.103367
69.363547 0.479588 45.090283
19.771685 70.876237 84.486489
91.658800 59.914863 45.433450
86.699982 62.996667 54.000942
22.238298 59.250050 95.936615
23.140753 90.510361 23.506331
80.821884 91.597409 76.669071
38.389372 62.098886 74.127572
6.820916 95.311495 78.907207
58.542180 95.096967 39.558651
43.998238 10.223236 28.784923
80.362814 70.377484 55.731712
84.168851 35.462339 26.480291
48.088066 98.014006 4.704575
54.225131 94.104191 84.330406
7.764037 67.937899 45.777254
27.605714 40.775875 38.864014
70.926711 28.167920 59.295772
70.011655 74.356846 5.792265
73.287741 19.351247 20.519233
97.466140 29.428950 36.349918
8.067373 78.000865 23.172959
49.663492 0.257869 87.000102
49.404936 88.442481 9.881017
19.998400 3.139638 9.393957
2.233295 17.861852 38.513709
37.597705 50.419278 82.801355
15.719057 63.126852 64.417583
32.673849 91.715513 13.202717
73.178853 83.401271 38.664297
48.549398 25.390177 38.708356
25.698526 93.489882 73.184603
47.407338 70.672931 64.521563
53.934499 3.454396 10.848029
7.948372 9.760786 2.805208
65.785341 83.321799 72.599769
84.292396 93.504033 45.600801
81.976298 75.136982 96.638362
87.989197 47.564791 46.260029
56.476045 48.973847 38.691345
40.482019 60.570582 25.774437
47.597449 77.275332 20.610921
82.367566 81.652191 29.557929
12.443514 89.257430 16.907052
42.452823 91.221318 96.066853
79.786115 76.885605 17.033226
5.477980 34.658869 26.664163
98.571150 76.843334 29.865801
44.298385 47.688022 26.731579
56.679008 67.025255 25.862057
26.762637 68.165895 56.739123
47.474990 4.833754 71.748281
48.111978 60.339087 56.358023
45.193099 91.438896 1.690230
76.295969 22.002081 71.378930
7.619397 15.327773 17.643883
91.213990 80.796194 35.271985
49.846319 13.885341 5.561852
99.079695 47.436659 63.871924
2.151050 9.716459 59.070372
48.889296 87.456931 66.709346
24.861780 15.461464 74.759540
49.317601 63.808976 74.105191
63.539591 81.289563 10.676775
85.690811 35.252355 37.853638
84.759846 85.472813 80.927283
68.175616 46.226862 82.622041
12.098582 81.390675 30.131984
94.344872 63.320983 13.297571
79.265496 4.939039 87.095123
4.206971 57.088542 21.032139
19.727409 10.366580 0.643401
5.193931 24.335786 55.102982
0.532146 6.591427 31.551055
19.848326 97.506927 52.585530
4.857548 79.416355 68.887973
60.802262 93.083956 58.743249
93.477006 69.932766 76.350326
58.710200 41.474100 26.870281
46.677392 56.709204 83.011270
64.038226 36.249032 14.199384
27.902274 68.768870 58.453313
4.460359 39.429766 57.923696
94.648064 49.350095 30.948239
1.856741 19.825672 13.433275
84.445760 49.792223 1.269152
82.157043 38.299614 87.193082
78.345985 95.156190 25.186217
23.165703 71.597771 72.704796
69.942494 71.015599 81.887848
80.245980 92.285210 86.213634
82.193270 63.854572 5.843617
2.285345 97.905363 8.136302
38.888780 9.891562 53.059868
85.889251 5.189550 95.134018
70.927343 82.518256 58.124334
29.895252 30.389199 20.154277
0.316519 6.526138 95.893889
17.288826 12.480959 70.777734
2.957766 10.523985 29.534398
31.458511 47.131475 27.084912
76.450479 51.821776 93.811974
29.792806 26.708099 63.895167
34.272332 11.230250 77.820021
63.411110 23.407233 50.568365
31.835689 43.455476 96.893414
27.025947 14.453998 58.273286
81.380150 49.230187 93.486128
63.365982 0.892848 22.814510
4.097767 92.536200 17.190952
51.175042 59.703753 31.112710
20.669454 24.126573 60.696586
78.357376 39.688619 74.252504
90.917466 27.924087 95.532492
24.958470 60.234385 86.332797
13.891024 30.486813 94.737190
77.461138 40.601592 17.133794
81.812186 70.754163 77.806986
38.077471 55.738182 64.710649
96.366832 32.320950 79.475870
98.127065 75.427877 80.482904
75.274995 95.114031 7.003204
10.379876 66.942908 18.318816
17.826881 86.498116 48.528249
38.233292 47.918599 60.954256
5.647913 58.824207 76.916893
19.019907 5.848637 61.074006
79.461269 85.077579 73.660157
49.449604 54.021533 59.930709
88.557704 82.760620 47.819121
92.742364 21.502375 22.696101
89.872727 83.860872 89.569851
87.345687 86.881454 81.691112
38.934913 84.120494 77.498323
80.038997 40.245389 52.788777
64.250536 78.946723 43.232013
66.861407 50.317197 93.057979
78.225766 6.453573 2.632579
81.708925 97.656968 56.022930
2.540295 64.114642 37.554136
56.107996 20.247642 3.339366
10.809717 78.244110 99.647457
64.521543 6.116044 23.419274
93.118564 4.543797 79.996137
82.959578 82.065619 44.315727
85.846179 36.592193 26.353471
80.414857 30.180116 8.416470
47.699724 87.757792 17.820026
20.929079 62.064969 73.332451
67.965852 75.341645 3.255037
56.462859 92.675199 11.715634
75.164787 19.680409 88.150500
17.519112 75.167238 61.802264
5.531938 79.738312 89.790675
7.190293 28.667226 58.542954
51.189620 48.680342 90.279705
77.170263 81.126897 78.039068
11.489340 77.222630 35.515754
28.511627 25.394879 93.581885
7.697465 31.737452 68.196919
59.686176 51.983003 89.360423
76.262841 34.603557 76.398516
73.682850 98.199295 87.158682
16.841901 61.980687 63.364131
12.601718 6.462534 81.994356
92.093738 7.791720 37.597803
86.423855 57.127601 53.601974
28.390717 85.154559 40.179771
90.522404 23.558459 19.674167
36.115286 96.333820 46.974034
72.653564 42.011337 45.960551
77.884014 29.548663 17.697378
77.405301 54.560195 33.732160
97.692965 26.591789 10.422125
24.262451 31.605123 39.553076
98.824131 15.397538 87.341456
77.253025 82.331140 60.854490
93.094163 51.890509 99.038711
90.552483 12.977747 40.802435
84.665608 86.136417 89.353787
70.464401 2.830603 78.984465
63.242635 1.315375 99.015800
6.853510 97.482249 23.033500
62.582978 89.281062 19.441215
79.077407 33.096144 46.711444
50.832886 2.937423 44.790243
17.367624 15.048441 28.630077
4.032564 32.644679 86.776310
63.799170 59.795433 27.680420
56.874696 34.510862 76.866260
59.569710 93.929301 84.794231
58.706475 63.385075 82.740388
38.797907 21.571146 87.251221
19.742063 74.531550 41.092954
59.355996 24.861541 40.395081
14.970329 47.508319 2.886541
66.100163 0.789841 55.327108
51.899271 66.919591 40.976740
32.364335 92.237497 75.799971
27.674335 71.977268 59.134376
12.121365 45.768304 98.148988
52.453408 98.870739 55.101244
53.512103 98.217103 3.425935
19.117860 50.560819 58.897549
95.056948 51.976565 2.887491
59.273654 8.425167 81.145948
1.989540 92.760699 67.917945
97.415410 68.383691 36.789113
72.252775 79.854948 25.365651
17.056684 68.322445 66.792919
57.999434 94.632883 32.324077
64.960567 10.752315 56.427420
2.398777 64.972668 91.591228
81.253019 59.301968 78.987586
86.150313 57.025199 86.796344
18.948810 29.739705 26.401547
64.948354 87.825674 71.572643
95.423774 83.022087 70.567470
20.178743 92.824306 67.858048
97.383956 94.784820 56.628241
64.368610 26.312953 75.985449
72.333086 9.747431 23.581530
48.360472 92.411537 39.543187
71.808622 53.213708 32.867734
45.860919 20.665596 76.158774
22.883489 48.779294 7.835099
73.938337 31.265372 69.666128
36.771932 59.335268 2.941632
6.472127 85.266155 88.563552
22.160644 61.358492 13.236314
73.301206 9.997448 73.737640
99.705104 63.964217 97.449118
54.109372 70.971979 12.595443
82.143891 97.482684 48.920743
31.718303 42.474639 16.809988
9.924919 25.580174 99.275012
60.091909 72.171033 58.419237
75.934186 71.158635 96.407295
37.253759 30.649052 93.157807
67.278270 38.734027 83.990912
16.267105 28.881130 62.503794
11.294301 62.525579 46.856060
74.306958 66.461069 74.176981
4.384007 85.144114 39.440733
4.664438 88.424426 43.510126
2.647668 17.557083 42.434348
1.929936 16.928490 10.430889
52.194149 75.241164 55.955801
40.203951 74.877414 40.929776
12.173866 11.864302 89.120426
11.247157 92.463608 56.817848
90.341257 10.320298 99.184461
16.407647 16.717571 83.786126
85.051550 7.229215 54.394054
35.987292 78.258976 92.508575
67.624906 6.185636 5.030148
61.531184 64.848434 78.891694
38.862205 45.718687 15.771922
9.826343 50.326598 12.376468
97.500134 81.364598 85.367691
43.468072 8.962172 21.178764
20.489609 54.367103 25.719924
3.271501 62.677489 66.560095
93.733681 30.693190 79.241120
33.113102 23.504196 97.825042
66.716811 81.307713 83.833181
10.276030 12.306845 27.802759
82.807204 29.072824 46.347136
97.243183 41.956961 12.554303
68.917567 50.559347 44.206060
23.251912 36.636290 66.487585
29.616637 10.391433 24.850795
30.433929 83.930308 30.179530
92.838677 62.535930 29.810064
24.536409 10.286233 8.600534
34.886691 84.638963 44.917984
12.384750 41.675171 0.917672
85.462438 48.520272 88.634745
87.047371 61.447047 88.410424
5.536149 2.929899 17.918215
75.622111 92.200342 79.372592
22.416618 43.866828 66.895548
74.999461 24.234856 51.282633
47.040081 28.834133 33.016740
27.489135 23.873926 1.318339
49.452119 81.553288 92.303922
44.335348 3.371183 99.849786
5.300808 4.322265 2.475466
90.026576 29.153075 27.002150
23.702451 72.230494 50.039847
43.860597 7.572225 25.464931
50.021329 14.632644 62.281754
41.243254 42.900257 67.267006
36.965939 62.546311 96.125621
34.668350 73.223211 23.711063
44.467304 39.414007 90.342422
77.865030 77.876163 62.270208
67.285008 71.979130 40.176116
76.445256 16.599071 52.227144
69.509577 87.872023 91.081988
44.250328 59.224893 79.917754
81.073650 46.534199 17.468703
35.646636 38.176370 49.734427
6.758305 87.151158 5.296441
38.922216 65.293108 75.255059
9.646602 37.751384 21.592818
38.801988 36.847306 15.174865
30.503585 6.767347 77.422515
27.756973 64.097064 57.303322
40.234995 94.987980 96.819596
57.488641 79.919070 48.716836
81.383842 14.596780 13.770796
37.112059 26.105175 95.160431
28.980477 65.944962 58.344999
39.606852 10.377182 76.773453
7.286759 93.201771 78.256242
60.789163 52.626307 5.926120
8.185219 49.735810 67.923550
52.674708 28.009035 68.853728
57.848325 50.221723 23.974976
24.639510 6.214516 11.914257
23.353422 1.054831 42.086992
15.517851 13.818871 19.998104
84.837592 3.042384 21.193035
66.131478 29.006290 12.440805
42.387253 48.198340 7.852920
44.605604 59.076015 99.010102
44.382321 62.912082 27.545099
75.252756 17.937168 60.059880
81.871346 7.775169 96.475686
87.548574 55.485563 19.121708
1.329291 7.077535 20.004577
80.155822 97.122093 42.638707
82.774547 10.733354 13.516947
65.819410 77.446014 9.773252
34.794774 36.399131 70.392340
30.665406 37.847041 64.206185
43.479674 75.942629 25.412903
41.565913 31.528305 46.259640
61.322030 63.524837 33.070390
54.345928 33.409157 82.535405
44.888197 99.419791 22.510564
54.067498 20.241054 73.890243
93.739954 9.998527 93.586671
36.568350 93.793980 6.453359
80.825100 38.810661 97.398865
62.269275 65.472275 59.630445
42.216261 0.430701 75.056274
82.259610 92.222222 74.719871
96.618621 4.988501 39.170964
49.479911 90.826976 63.706122
94.461495 12.029529 57.536549
9.537707 41.968493 92.641316
18.388911 52.121982 31.764565
9.483312 94.636698 58.432873
93.632634 10.972038 27.982790
18.828389 82.851147 43.336065
20.551529 86.162600 79.511316
87.062989 57.595948 81.782462
3.558835 47.963879 19.646548
40.112348 43.213036 65.300226
74.991542 85.238036 45.232281
93.144076 35.347461 10.499412
72.705582 49.011952 40.706153
10.242539 23.321397 0.098777
73.050918 70.252776 94.611559
48.289505 18.103137 63.241918
88.068795 97.118364 30.186271
15.885259 63.846096 23.905880
34.587522 50.191192 97.736122
27.290856 52.672218 66.961085
58.011719 65.039252 35.800642
36.531512 72.654512 67.082023
73.232640 1.459516 55.791949
75.570975 31.492863 90.229785
48.306387 63.082690 2.742794
94.633569 90.806518 69.117882
75.424585 77.928519 12.878656
66.623942 84.395077 91.166825
15.334413 94.132400 74.858061
31.345954 24.217419 69.816660
71.949109 15.984052 96.218253
99.228984 52.732927 90.295712
85.248591 38.686584 98.224179
92.511300 91.276068 86.684297
53.466076 50.390418 58.909801
77.446867 93.676832 75.569867
9.254870 26.892104 65.611214
0.282301 10.653774 78.447640
6.320850 46.269914 8.883816
49.303960 55.837570 41.133846
5.301127 67.013570 9.266506
46.095317 88.066051 17.818614
46.254906 3.975328 54.705367
14.240608 42.689848 5.869696
82.115443 87.315725 17.230200
1.176708 12.657517 92.083219
46.214188 40.935934 1.078679
59.608276 59.178940 34.380358
72.233259 48.401891 67.513968
96.975860 75.485059 16.873374
70.330831 22.545378 99.844681
24.878961 12.524150 52.534981
13.867865 29.797468 55.798310
1.209485 96.670840 89.438584
7.084209 59.146065 94.284941
94.660759 1.140986 47.207752
48.754413 82.030245 90.382851
31.750253 41.116861 49.087821
62.715478 34.057822 83.796309
58.100918 39.766779 17.999912
87.079913 60.019734 12.186592
