7.228253 7.188748 43.707427
16.084947 92.546207 43.068258
36.076201 90.803283 49.364762
36.243728 46.076113 40.948943
52.444523 44.050653 55.732095
72.773977 5.383299 22.950990
80.571199 32.190650 37.601789
9.566345 49.662796 34.694337
9.540454 49.489564 81.388991
27.414055 96.524107 82.400669
49.370414 85.165407 17.106631
64.516610 34.102101 35.644351
41.149731 0.820130 0.523907
50.586720 85.653217 9.213494
98.840074 65.480792 90.597242
0.164140 79.702260 83.863066
68.513478 83.400796 67.925769
84.539903 39.983029 58.896453
50.617047 61.472048 89.690322
68.097626 71.815155 7.128675
73.262237 32.731369 23.431274
0.516085 43.845299 34.071363
7.346283 22.467461 32.545530
50.632724 67.393406 69.891471
28.991742 17.756519 61.559740
95.776117 92.970963 91.028418
24.186169 72.321800 6.239398
76.856927 34.212087 46.716019
0.430867 53.171776 72.990203
1.077810 93.843420 15.010344
30.638707 40.008197 1.648317
6.347218 82.275112 3.984825
27.747470 87.856818 67.459090
52.883718 50.417832 43.569971
82.007805 97.475648 23.666371
30.844019 78.403878 97.668045
66.005023 51.393897 61.952835
34.967971 85.190427 37.065718
72.672271 48.495923 87.595664
47.890087 25.882109 91.165438
26.687920 69.861191 30.437329
46.482705 76.422138 29.645204
35.237949 59.473943 48.698005
33.872055 83.288258 53.381996
92.799636 64.485357 84.675168
46.919336 71.513202 4.042446
34.133957 17.088679 68.324894
61.237509 47.600604 34.198781
39.234945 0.013757 41.735443
93.427217 74.328325 59.908620
28.813083 17.886271 46.642588
21.333198 19.176467 81.491317
13.785736 31.550195 53.104238
7.569989 93.368239 25.407012
67.618813 22.483975 71.362604
25.461811 69.964838 51.515865
14.969769 8.640326 21.800594
24.128820 43.179185 77.744300
28.069610 54.265038 6.188386
65.679427 91.059045 99.156741
78.194796 75.304025 57.691999
65.598561 68.715230 19.209067
2.276077 72.025331 54.921123
5.981241 20.100235 23.060795
49.044388 27.996811 45.668084
41.266573 71.085692 77.205674
24.938454 75.315624 65.918049
91.897579 89.237029 38.538195
14.643076 43.835696 38.300923
20.197748 8.027339 94.606289
84.649286 61.509581 8.542708
78.915821 76.840140 34.496726
60.922911 0.673699 10.777011
21.458894 26.229697 56.982762
43.812699 99.746445 55.647735
93.268085 45.944585 74.754575
98.982084 2.122456 92.441311
66.823613 37.169987 17.109757
70.931616 67.253054 36.733325
95.525426 35.640936 98.901150
64.804968 36.378480 24.841448
17.185327 70.797116 67.997606
10.069330 86.989364 87.789256
74.543532 57.179862 68.724435
52.071453 93.968647 20.115544
81.293408 37.397318 76.086162
63.898883 92.437953 66.591644
77.352179 1.317952 30.326105
49.638945 42.704689 6.717462
89.439185 19.676262 82.306493
62.047141 6.616655 75.154536
94.150209 35.584733 51.295738
12.044227 61.693846 97.586854
24.998212 18.746985 34.858506
44.400966 7.514061 97.061506
36.924633 30.430423 75.417741
97.539683 57.964363 19.075960
0.788172 20.209726 35.717481
75.557139 2.960641 75.476270
60.803397 61.441701 99.528465
49.141979 42.084242 89.211128
34.728729 40.567116 85.960579
40.709418 93.822094 77.609553
29.612498 68.531105 87.632085
62.602654 92.357428 20.021424
70.012915 24.087710 24.929452
38.578308 28.061208 2.979596
71.741812 84.195941 26.511829
84.577568 55.712920 47.098848
49.321318 5.205707 17.269277
83.906056 56.470225 61.920155
24.758875 8.467265 68.795886
32.917720 99.328175 66.880678
55.175266 13.694440 18.567152
94.360224 25.535111 18.192565
14.447460 74.331028 35.875758
43.288801 98.923768 82.899501
37.243613 67.794710 32.461202
52.339557 37.706554 23.054177
8.277288 68.478233 99.158636
8.816882 13.702683 31.312320
56.764845 97.111081 30.799336
38.830635 55.802518 67.683148
67.113764 55.106333 69.145330
91.562963 72.313604 17.256110
90.661832 80.603494 4.441674
25.787220 99.561389 26.722910
99.819971 41.010012 90.426910
76.498641 93.551547 27.721213
62.720835 31.312950 53.858988
55.903088 4.591667 44.976879
97.399576 0.416638 27.381163
73.253164 55.913492 47.127666
15.878062 39.176498 99.928530
93.457440 45.220847 26.919398
49.019330 30.955059 14.752635
91.398113 15.150729 14.946411
81.020659 52.967879 73.690582
91.723552 94.041979 80.417412
67.713241 36.016113 79.602360
93.334759 62.553159 14.521030
38.502134 43.178524 99.117731
12.651785 71.757594 61.600564
69.408938 74.465175 90.235187
3.338735 73.995868 31.088986
60.708936 74.617355 33.961518
71.006047 96.370048 33.489060
40.455572 99.227110 48.886949
69.898665 58.620503 5.904512
94.187241 55.476487 8.553300
17.981234 26.943709 68.018501
17.095024 22.466898 31.330715
72.537293 40.555818 86.502011
64.743126 72.687255 48.904073
99.196202 72.654619 70.561805
23.208615 39.943413 48.234811
7.568519 67.760703 9.921341
36.168371 94.382718 95.756213
1.033847 94.419673 47.067469
71.429140 40.495825 53.275721
1.308820 91.699206 79.063186
24.988077 87.695000 18.851102
34.015669 88.684171 87.042944
0.519916 28.109842 69.598141
20.090495 0.503602 82.558610
83.347506 91.305182 99.555869
75.405587 69.802476 1.117149
98.624043 76.708043 94.036582
97.173011 35.720275 76.874185
9.331921 35.472528 88.169805
44.827361 83.356002 64.415140
35.079434 74.414825 64.256157
8.989180 36.435291 26.751809
24.175053 62.992886 34.719195
49.609948 7.689496 83.119039
46.641112 31.679626 98.801161
78.062966 70.206725 81.176391
67.996800 0.974448 47.463485
14.344856 28.787139 0.421581
85.124760 97.401582 90.222217
35.396588 24.286042 18.344666
77.381145 82.056790 12.118626
27.768298 89.903197 37.928170
37.978030 33.650062 88.933574
55.486694 95.453790 88.104053
43.174986 0.409870 16.224663
12.318503 59.162945 0.378027
78.177003 64.688431 43.969642
18.593344 18.678232 43.382747
26.624279 82.457707 5.670998
12.894338 79.914484 76.578286
10.002673 67.801995 32.952054
94.415828 6.130671 86.371984
49.255599 82.769272 47.502691
84.428643 18.296724 6.076966
77.354088 22.727261 99.905074
0.353688 95.966683 99.895402
13.312040 66.642995 40.513067
7.231172 54.471479 45.254241
57.010268 56.361091 45.357468
25.006649 34.341499 84.135201
39.457146 21.511908 99.421364
50.207550 62.566038 36.269700
92.469917 8.624003 77.921960
35.264462 94.462212 34.737193
93.156791 81.330024 50.851060
0.301979 4.941376 46.774546
66.883447 88.690840 84.353708
21.092855 93.315101 26.116668
40.716635 67.287188 99.072420
44.933753 86.704036 4.094456
47.051650 87.788529 54.480730
90.158477 31.825450 92.582149
98.941678 7.929700 7.809234
5.259941 85.261000 93.228838
35.432650 76.816317 12.391503
43.739215 19.838405 46.140481
0.834730 78.958814 52.774006
64.940740 49.664111 0.204784
80.073094 18.823173 24.252432
89.379775 85.239859 88.951344
35.827953 8.936349 32.000900
31.547945 19.434277 24.616345
82.651695 82.757550 85.732547
6.667424 78.969642 96.905967
23.852098 81.221397 27.566484
50.007142 43.525832 62.740554
73.800470 8.467771 93.513925
35.084021 77.470313 48.896754
59.687092 62.284929 51.518170
60.672389 74.798476 1.481477
26.116355 10.229891 55.479856
99.589725 91.495545 49.800144
68.542624 50.084048 44.923133
38.492062 39.140153 60.548721
54.341573 42.482937 40.566433
72.935178 71.190618 99.816116
23.147135 63.810390 74.862340
67.479797 1.052320 62.453535
89.991901 27.645491 78.465873
71.912066 6.684174 53.259146
19.754601 5.642472 61.211999
2.067224 97.007672 86.224715
0.223204 29.728873 33.237606
64.958250 51.565493 18.895172
77.883511 49.364398 26.149762
77.048302 59.656965 96.358801
17.836131 7.863339 35.447435
56.538872 64.833957 92.951201
6.356367 9.283247 59.994705
99.670385 38.676872 64.635188
60.331416 29.712940 1.752234
94.319618 14.093205 22.782550
25.984822 37.930288 90.805622
56.471885 86.876811 81.442869
14.273890 19.393678 79.501384
18.270869 43.166728 21.313895
31.704332 48.741471 18.553443
14.360924 63.145035 27.609874
11.893936 14.920624 19.614791
89.026578 70.366758 87.956321
78.274838 90.026566 87.254022
20.312108 5.932589 17.122502
46.803348 41.007589 37.763834
67.003550 28.112834 66.298445
11.336399 17.177168 47.248559
98.859330 79.578602 7.632756
84.072298 22.987041 14.658316
44.288568 39.013734 94.217987
64.080802 18.156197 62.303964
83.171027 68.965139 3.935229
40.931426 21.783855 60.663022
29.874588 21.534036 88.226143
31.827785 7.702668 17.714118
62.909287 80.789858 12.437337
90.195376 30.878955 41.016098
85.806583 80.405637 62.418224
51.168747 5.559646 28.698647
51.195425 13.318180 52.137592
72.353458 59.577674 17.058235
25.060914 72.104068 37.177742
11.196623 2.049904 94.164540
66.616263 81.782618 35.187620
98.831664 19.290787 7.530227
19.094824 84.098492 68.312602
57.481709 46.379927 16.335602
29.288531 57.798088 38.754553
8.743389 52.552086 13.529720
24.173638 51.954463 99.183513
31.214247 0.863024 49.854502
40.704487 52.739101 44.155665
42.539910 15.859823 53.104668
59.565453 10.337511 32.955203
90.967651 55.964986 41.576119
28.632049 46.683968 67.226858
82.238067 17.968242 37.667602
42.428315 83.578645 28.683388
55.439199 27.109012 90.586986
11.236399 74.451967 88.855137
88.535486 38.364871 15.981929
50.611853 60.499496 48.374254
55.645661 81.639939 44.296317
89.968823 66.569581 31.036280
13.211941 59.532646 89.842849
66.200718 94.511160 8.096844
44.560157 74.862588 51.435063
73.108283 0.091083 16.675357
60.322581 86.163132 70.922572
4.707236 58.534038 57.700179
99.912594 44.655488 77.783902
12.821590 71.237952 74.902933
7.444713 4.924638 11.495604
17.526171 54.888136 33.327511
74.564139 99.165148 98.773622
62.196777 42.623191 56.225541
68.251081 29.047673 86.840686
16.023758 11.619377 58.279196
29.750720 69.474970 69.654738
14.622304 99.288304 92.515083
6.095150 75.182291 21.587967
88.981982 96.877023 14.074198
21.416058 56.044114 61.989949
52.860147 10.668312 12.204330
56.517632 43.458624 73.546724
39.140612 84.913635 43.015990
75.171131 90.966925 21.034717
48.782923 44.443785 18.629687
28.545881 31.598216 27.171702
13.596422 91.285205 58.038313
7.087333 99.183552 70.036511
5.630659 86.556225 41.293413
55.464257 80.938011 87.712368
84.585787 10.584882 7.259816
98.348563 8.783720 35.190631
22.953312 23.614211 48.191182
49.985378 0.654674 77.293955
95.263141 86.433507 98.503577
74.016962 68.209024 69.603958
36.747398 7.062731 98.267231
55.736192 99.542873 37.685205
96.337161 57.646990 92.399008
95.840886 22.283977 78.825168
35.049450 99.968701 20.996649
61.292555 10.956723 60.565270
83.072149 87.871631 55.720962
88.489565 51.471892 64.579544
73.119613 46.988883 73.510379
85.217042 5.672264 20.811221
70.328826 16.488440 6.485112
81.640948 18.666062 44.775968
99.721740 34.556197 27.663399
94.573933 86.221716 22.097351
93.583306 15.298271 68.024441
1.964967 42.398373 9.413941
73.615974 21.559412 93.839421
36.634403 13.517497 75.451153
6.723473 57.411290 23.930098
50.569866 10.387868 23.148041
2.743184 93.601632 5.702754
2.914187 30.504261 20.186065
52.808003 44.854377 98.253308
0.631626 40.493688 58.922093
46.703475 36.755206 60.724854
44.809892 29.031590 67.130287
0.369925 9.900494 89.583998
88.221132 46.441754 93.065015
13.380640 99.820380 43.095517
63.998541 40.842651 92.030866
60.640136 6.814072 83.189035
64.808482 85.498933 24.701138
63.547895 76.393319 99.462211
45.290774 22.796313 76.499414
0.319881 3.185317 99.796445
72.310225 82.865039 6.786486
42.687402 9.288241 35.812580
87.964507 92.793257 24.725850
4.818366 13.052180 23.785702
65.657157 10.072560 27.852063
63.420424 57.074135 84.648028
69.741441 77.757310 49.041307
4.971336 56.200873 32.940377
96.476069 13.408613 85.771237
77.631831 66.817639 53.353954
32.617556 99.835302 91.933815
93.379864 91.078056 67.742466
31.399243 31.290468 13.312070
2.744081 14.648993 49.963753
76.535126 90.755927 35.728563
51.679293 27.354594 38.350328
6.537814 31.022320 6.544847
18.161917 93.622070 32.844563
38.636838 56.397196 54.580018
51.404943 68.620005 96.122619
99.262106 44.343374 17.465709
9.501867 94.113347 33.907863
0.693605 88.039197 30.288968
17.472242 5.299505 68.668055
42.113235 85.576263 91.586280
66.333593 4.212960 87.510435
95.977017 74.143381 80.688981
6.239295 74.960904 65.500507
54.969172 52.393565 22.317086
65.314163 84.118574 57.702504
26.893899 89.249096 26.201788
13.292513 40.304532 92.411508
86.683255 32.841000 5.163323
94.468890 32.161859 13.811685
69.770120 46.643378 99.214602
13.767233 26.047259 25.618901
82.519054 92.761413 31.350604
21.349206 74.417939 78.931067
47.888922 25.842293 52.714682
18.063583 88.196029 83.687304
55.302329 20.080738 60.447347
63.097840 77.327709 71.850787
50.825385 18.625360 41.026403
95.153498 72.145382 25.631249
87.714422 5.872925 39.435471
93.314895 52.918048 26.987153
52.219820 99.981405 81.475278
29.575220 15.783119 0.200200
9.389868 32.758302 63.653700
34.703066 1.525964 13.732728
8.240449 70.129234 46.214512
31.121482 38.950293 50.772641
27.028966 0.137169 71.889270
73.335177 94.523407 75.768612
83.383967 6.753789 84.485529
67.511070 34.667110 6.290901
16.538245 79.423034 47.358158
41.234577 85.755562 11.545021
67.647115 40.573495 31.524177
0.278536 62.867447 82.767136
40.416487 11.486835 14.010428
66.508042 13.006379 43.140615
57.439389 57.580304 28.845779
59.821107 98.929698 9.851677
40.129705 99.607139 72.602449
88.655663 92.613091 45.550970
54.213556 35.553728 30.329465
1.002157 29.989965 58.506426
15.467218 49.432200 71.870119
82.376302 0.463971 63.598506
41.558286 78.154913 43.711526
93.897561 44.028811 56.047160
7.359693 80.931042 35.872556
78.855364 7.694951 53.561049
42.257181 17.192832 80.532612
17.928866 60.206133 66.434822
92.816106 99.760564 72.076110
39.428711 30.840059 36.521058
1.009930 0.893670 68.665965
12.077796 49.201255 53.926121
57.680700 25.803621 22.727266
37.144873 41.543551 23.710722
7.905953 89.536465 61.940671
26.013375 1.971365 8.664730
62.861851 13.874861 81.099001
84.748091 32.847909 59.484729
2.196558 7.051346 0.238027
56.684969 22.138418 98.069674
58.521431 8.008763 98.815803
28.296729 60.640269 59.877417
0.686538 31.281477 49.987022
48.043881 76.575597 22.824775
19.325070 77.439500 70.959410
99.827614 5.985754 63.525160
87.371499 67.187651 76.406781
44.956420 92.612126 62.753338
83.231642 82.250512 37.546616
56.979992 20.504575 77.708279
88.657086 42.358897 4.889271
19.668436 18.520765 65.493918
23.817348 93.372927 57.374022
85.777153 3.523708 9.060049
54.495204 88.779921 58.138621
73.361317 69.832665 23.432167
81.765616 31.068571 84.643701
54.819668 37.548029 58.353234
11.446132 2.253635 30.102437
75.842253 21.067171 84.036174
71.345947 24.234940 1.332084
69.733402 44.404227 1.159035
90.493643 20.667785 1.152392
26.964453 31.806043 99.032996
72.041779 62.411106 73.645787
18.632991 31.113013 39.234644
7.060131 60.181902 81.023517
0.476876 0.273997 54.372516
1.291558 62.489245 23.732053
45.360311 51.128858 67.548642
0.694497 53.751001 89.521428
95.936298 50.473842 99.929258
97.631454 56.809202 2.555146
62.801587 90.514060 13.229671
84.683375 64.683272 18.538133
54.314745 75.445210 62.638738
19.396367 72.052842 91.597435
36.039561 38.638751 10.513795
78.550044 36.915868 97.566284
77.606729 24.727889 73.115684
74.956374 58.170294 25.786563
28.317407 27.878200 59.394287
49.469665 74.628042 68.671389
19.937588 83.375715 15.873155
60.377380 31.191968 18.728540
16.064246 65.138291 57.230698
35.336664 67.636936 76.087794
90.106768 40.192182 77.539987
11.170080 37.085209 7.429110
53.406754 68.891316 79.913785
82.807204 29.072824 46.347136
53.623056 51.366926 66.807103
58.922810 0.150210 56.841971
22.158454 86.214867 55.018499
18.674769 61.440468 4.900106
46.778669 1.171423 94.028400
17.720309 28.296881 45.708162
36.736545 11.932007 38.962881
28.382945 10.204126 76.533082
90.026981 71.967209 7.759625
6.770412 65.858240 55.414077
50.652816 95.637285 27.009787
75.107955 82.552430 98.930854
86.735734 51.204565 0.268649
85.304010 93.699575 7.251110
91.907888 67.486033 62.744379
19.540823 97.692991 6.666131
31.271146 35.892007 20.942201
46.753249 74.820907 85.056488
4.751101 55.269162 7.271503
61.913672 18.847754 93.002222
88.442489 85.969562 25.786321
45.296138 79.278115 97.369130
14.903337 38.119401 82.553763
0.328136 78.291689 24.972241
74.997619 39.633459 30.596967
19.718700 46.923193 0.891364
9.269237 26.767672 96.675892
64.395267 47.766107 12.724064
12.731944 50.252699 99.735131
5.525676 12.656656 72.721189
76.821289 60.806549 35.204116
80.779895 83.500794 66.917309
20.665956 76.815568 2.349606
28.377306 36.849507 40.970945
24.684419 66.348352 57.789624
99.047879 20.514948 16.958213
68.603691 0.121944 35.938423
24.730349 14.047996 42.259838
42.553605 89.622010 17.536175
57.016615 71.900227 48.263518
88.900901 92.205457 87.705062
40.813451 62.101930 41.134496
80.109203 72.922562 22.629257
0.177821 76.029548 92.517384
48.841196 39.411159 72.536511
38.045893 6.819317 59.324103
54.973568 69.803348 40.369730
33.086554 54.049136 93.439398
73.714302 53.859176 61.407637
51.927864 52.785500 5.115890
72.874992 76.030160 72.047532
38.655557 7.065308 49.517254
28.216628 81.530019 78.371855
83.917417 37.564884 0.495697
74.722367 29.588575 54.043601
13.327693 94.109726 98.414341
44.018998 53.739982 81.080768
56.081569 7.010334 64.406118
20.779300 70.587235 26.781251
71.355238 85.180996 13.478033
41.125268 30.971921 8.789212
31.321417 66.677092 94.188265
12.607495 23.745152 63.628360
72.696387 12.281664 74.784328
72.818896 22.895789 63.061702
71.459506 17.087367 33.765878
66.602237 93.092606 51.439254
96.701555 0.166865 2.031499
69.072274 22.526771 16.853785
85.100058 44.637543 10.601391
58.389859 65.871538 19.791952
9.538359 43.445354 14.049527
51.344226 8.645929 39.137812
23.931493 8.087119 27.033408
14.046609 81.798525 24.741476
55.226972 80.907683 33.696024
16.499976 80.715022 99.183680
93.693756 16.570284 99.985307
66.689804 30.625941 99.554917
60.131488 50.162005 89.183573
32.611156 93.474333 3.529711
33.747666 43.208195 72.086328
94.203279 48.409823 68.423129
0.543726 16.392085 69.414681
43.619090 59.744919 64.770769
86.451951 25.596740 56.563602
89.949772 7.209674 0.731511
67.268450 94.190398 38.771708
32.538786 52.886247 28.745255
71.004248 19.150914 48.290128
80.145242 30.840919 9.429461
80.395589 12.810448 69.186009
18.293348 17.253832 21.100180
27.598712 97.823669 71.280222
18.209502 98.081613 47.586434
67.171552 77.728630 83.931219
94.904905 6.502146 25.596798
55.025460 67.874105 30.375455
35.278963 68.669920 50.660651
31.259697 44.958632 80.605119
91.227734 11.836039 53.511727
37.824454 21.111681 36.155024
31.325717 14.636141 87.742414
81.016574 42.346632 23.515688
32.049834 45.017323 11.059965
7.183600 20.789757 74.224598
43.388507 92.532091 92.202915
93.264444 63.962251 99.871570
15.160215 14.989070 97.585836
75.102268 85.018758 45.660869
68.223700 60.666298 80.474038
0.301979 90.881827 52.818912
56.234172 62.793140 3.407196
7.112363 17.365659 86.210808
99.091753 26.027750 94.596295
11.791332 30.269290 42.558054
45.704686 14.212481 2.673964
54.870476 13.516673 93.288656
48.193849 19.124761 69.696331
75.186831 8.662927 37.188455
85.969723 8.246562 65.400022
34.484710 63.732795 86.395179
21.776237 89.360538 5.521089
66.802045 28.837034 80.226121
38.434322 18.961742 14.240631
95.741221 96.638712 29.511247
98.516155 64.918265 6.832805
2.282711 68.074394 40.599998
18.171176 53.783011 92.145826
3.584461 47.325506 78.146768
35.970060 79.283385 77.350224
86.280993 30.953076 30.384196
70.472293 42.684706 66.701486
74.060450 8.604084 0.370895
15.292760 25.565674 11.265328
18.726007 54.775369 18.638789
70.295247 85.986296 76.522454
74.838634 76.640749 63.402735
66.219150 62.985398 26.216404
61.961285 86.300273 50.653240
92.415839 51.800358 35.882708
6.536644 0.675659 87.907295
59.784763 64.406986 60.273658
84.904024 3.793419 27.604321
27.270269 1.748402 86.622998
92.090945 38.305371 29.746428
0.264901 52.330359 18.970838
17.559304 73.130815 7.153556
4.237282 23.218255 6.300508
37.422878 68.722719 66.991201
71.650942 36.893074 58.962322
35.574344 53.977611 74.362501
82.157464 45.476041 70.419446
50.245041 57.435069 70.640660
2.875859 58.582177 93.743902
97.661266 65.849261 39.166303
32.330056 32.193309 84.644808
81.792187 24.265514 0.312977
94.955949 84.941219 10.678275
11.642527 80.613921 85.858103
73.184897 28.068406 15.517171
8.783353 40.842196 59.494604
7.915099 22.394557 51.277007
23.360881 41.101141 55.830884
27.283077 15.144732 12.362138
94.448686 83.829195 30.798418
21.747331 47.428582 73.126089
70.977722 36.155779 44.135334
74.149622 94.232990 66.026182
76.150988 17.282450 9.773339
51.185130 86.852037 42.545616
32.887218 42.286228 63.654360
27.170004 97.774939 11.102407
94.947327 94.741101 44.709127
11.801776 69.889045 4.365227
30.348052 25.203108 37.465376
64.053811 5.759681 44.947861
98.709992 21.175114 56.135291
2.520715 95.124311 59.404776
53.007195 95.624689 7.369943
1.982236 5.320881 23.313349
38.761796 35.285713 82.068624
92.715725 80.299591 92.995385
82.465556 68.025025 91.623228
54.727124 4.502020 0.037517
55.359777 2.325210 80.898719
8.032697 38.761560 67.904493
5.231593 21.451455 94.197319
30.049184 88.613392 60.295086
24.816079 74.626743 57.533891
26.883258 56.987224 73.524198
6.249020 69.443790 16.993898
78.778337 99.692785 54.339206
99.787983 50.321300 56.914311
52.419901 31.692301 82.367384
83.557443 0.183782 48.750165
22.213390 93.037284 88.283855
44.233743 59.895468 93.652906
54.522922 70.893943 57.312404
27.440131 2.283514 40.280119
29.035125 86.151464 90.689107
14.974711 58.092641 55.490824
62.183913 72.111563 67.797015
39.942728 42.076986 17.185793
30.374913 46.108463 88.438119
61.977870 45.952791 76.445592
99.195753 42.002590 39.801243
83.027951 78.467305 1.752612
52.815174 48.070588 37.275627
33.020094 5.261558 77.819615
38.985662 99.776423 8.203007
62.647391 30.513516 29.742044
48.615046 90.893745 86.948343
27.905099 74.548948 17.583777
38.090891 72.090442 38.167514
78.288330 49.229656 18.280819
44.231974 44.732947 25.794562
66.095187 56.133831 75.632725
43.340435 4.159041 83.615488
35.495991 23.334833 66.324906
56.343457 17.049957 83.347144
55.999531 52.390086 93.935315
45.966970 71.882044 41.972062
22.720801 29.798588 91.386642
75.309337 14.788547 26.851491
32.093168 49.865272 44.479111
46.244603 13.716513 47.736861
34.668350 73.223211 23.711063
13.623787 3.009387 1.310133
6.316808 52.285663 67.277979
18.265017 4.095574 11.089552
48.438553 5.709665 50.322797
25.702535 2.147404 1.087246
88.474804 74.996068 22.498963
96.453678 25.242635 33.986313
33.572864 75.235920 90.413032
47.050370 65.527063 12.112069
49.760878 69.001825 48.869147
84.476841 5.075847 77.641370
60.687649 0.229679 49.779974
31.352242 23.829903 45.206843
24.861885 20.545807 0.178149
87.750437 87.666489 50.018452
95.060718 84.008047 62.193637
68.587280 76.297849 29.495066
86.449808 95.077908 65.727413
19.503893 99.757665 20.674917
87.176406 24.597436 94.605291
24.958470 60.234385 86.332797
98.005803 23.392176 43.261033
67.377272 1.649430 94.612967
66.319824 0.890855 76.280898
56.958439 16.363685 67.710914
82.571297 28.306504 66.856654
8.411430 0.721743 43.078789
78.027285 32.035089 18.816442
16.009501 14.259713 51.594720
6.479940 97.455353 10.072598
91.086931 57.822319 97.711988
55.701346 9.229808 73.199311
75.272077 11.768374 61.107728
92.070828 61.999008 43.990365
87.726494 97.098296 99.913452
37.228351 56.226244 87.061866
55.951642 22.991753 52.724988
58.802574 93.605382 72.122855
0.657597 33.032993 13.634967
95.466644 34.188672 38.860260
89.103439 42.920844 85.728163
84.744032 73.921358 83.675704
43.185297 27.221419 57.109347
49.089008 49.497137 60.126958
69.341107 26.519212 93.181935
57.937318 38.913444 45.409377
99.762541 66.054200 59.905833
58.103816 91.737659 62.772858
56.139333 5.163943 18.667749
45.499799 11.810270 61.190395
18.653505 36.113331 59.833557
38.406585 79.094402 68.340130
15.252111 45.661544 59.951942
66.111160 80.421741 6.417539
86.794930 65.882959 52.761280
81.652585 86.555491 16.134079
70.870592 93.148598 16.063607
44.387272 32.907271 20.174931
47.941867 49.961487 89.430550
0.156318 20.639563 18.950437
99.812071 50.646591 88.425672
18.409299 88.187089 98.947298
60.899287 88.046522 30.116616
9.619705 96.320249 56.502702
11.456074 78.947019 53.932724
19.383543 22.958949 86.486868
81.119278 69.426105 67.568197
54.351788 35.808502 9.646738
63.431345 41.038008 63.372685
99.288811 84.502902 26.323252
74.496187 92.081369 49.362947
56.681674 73.454631 8.309337
99.733559 27.185109 85.372549
54.378643 15.469276 26.094193
12.870999 88.077850 36.525261
57.363178 36.549493 37.012221
66.626073 49.724541 73.304306
19.945905 93.742724 66.253261
20.351884 99.926169 33.700727
72.505451 78.385348 18.100415
19.154117 12.727495 83.365815
95.366502 64.758726 25.344866
34.643375 0.719425 33.998687
66.679533 93.787420 60.644913
96.241762 31.647567 56.964055
76.742976 6.185410 88.078217
84.383064 12.043995 99.061249
18.598581 0.561944 93.089549
4.968314 87.102124 17.333466
93.282075 89.056648 75.458927
15.024967 22.213110 55.653216
23.605484 30.096861 79.131339
27.859641 17.183797 18.695180
81.725891 61.037593 24.113777
32.320295 80.881489 28.361148
18.409813 0.254745 31.829291
11.647997 23.692571 43.728001
83.347933 51.011212 11.690955
34.820739 42.727509 31.032151
75.283687 78.422902 92.408114
50.945114 2.622888 58.698634
0.123763 25.565452 44.457082
22.101029 33.037017 25.706281
98.255291 90.451931 0.719277
78.857303 95.927093 39.664524
18.344843 27.058203 74.561822
95.785802 0.369490 15.673984
27.397832 44.184176 36.915245
79.885218 82.934686 5.638076
65.243607 69.467906 80.730373
8.214098 70.018738 84.754047
15.594364 7.612575 90.019117
50.147463 26.678926 1.517930
32.599002 73.762133 4.897099
36.910508 77.923872 19.097654
79.830167 92.589182 93.027643
75.113185 86.672799 66.360820
93.682679 52.773447 78.149743
40.160266 52.767104 31.351711
0.708377 74.063585 79.157858
74.987499 58.212323 1.881861
7.252838 78.196269 41.766800
36.342797 88.142499 57.806498
27.141107 56.930753 94.755575
94.046899 72.723342 74.619167
73.454071 77.866240 42.789877
68.797348 49.112555 8.142379
51.760633 30.574086 72.055272
10.741014 97.986723 19.704338
51.813949 66.851705 5.870032
91.704875 23.868592 29.076108
1.498143 21.034647 61.880392
75.235929 45.806901 55.364292
47.777534 0.553585 9.962675
46.587812 59.854020 20.736310
30.140470 21.620272 76.025510
13.771849 48.926961 29.828085
36.842973 53.304652 98.658640
59.478749 59.046203 17.883459
44.658996 31.458620 90.560782
75.238736 20.329918 68.999253
42.059708 47.667603 52.878859
14.421254 35.369272 21.456269
11.395461 99.635804 6.289132
6.747411 41.618869 3.789742
41.287013 22.013330 26.137299
4.790123 11.907060 36.357750
0.670695 49.388707 30.751763
41.719797 65.118634 28.550817
50.791579 29.799405 62.342136
49.323889 96.109899 53.360304
87.919363 46.402622 57.345458
93.867978 22.252065 93.775767
72.144896 66.242793 45.679764
85.082735 60.353359 95.372595
74.459255 42.371122 7.991225
50.664233 27.151239 31.808776
0.528660 73.425221 17.347128
56.367356 0.015817 91.803940
95.057671 70.239763 92.764323
1.248319 88.387480 70.356373
26.364453 45.865654 95.541661
38.293314 75.725815 54.215667
74.451184 4.262191 7.051131
51.681940 80.014005 12.142012
93.252710 7.581084 64.146368
40.649178 44.845558 93.167326
68.365382 13.268156 92.698492
79.077322 8.641512 75.853263
31.417409 80.611109 63.791109
99.938952 46.263404 66.421712
41.414035 3.738922 24.505514
77.825115 66.054250 86.093343
6.470738 79.707736 71.843439
49.656681 0.212089 99.708439
79.648390 33.964344 26.177029
16.429828 9.287640 4.731337
63.386411 30.805450 90.734961
93.886701 12.974316 33.143712
55.416372 1.586714 38.669354
68.974913 56.114859 52.856416
0.600084 42.535851 43.090251
25.206088 25.100038 6.619455
22.568237 62.910705 98.998149
42.900803 47.379197 39.373704
29.613294 55.475507 13.773066
60.161484 39.135947 17.419585
92.091685 26.056000 9.410254
8.080408 27.366479 0.241314
10.803842 31.340740 80.839569
13.586619 93.408174 50.783497
61.480478 36.286544 77.128316
79.764199 90.677727 61.485363
6.381293 99.398532 35.793548
21.743507 13.075389 3.599239
92.329373 56.229093 14.945084
10.801452 44.930301 69.458239
23.604351 63.701886 49.847419
67.351170 99.254462 24.091742
52.995065 83.228681 22.029512
51.282566 40.024074 0.941895
82.020734 98.043150 84.016916
84.696003 87.395629 76.780340
53.489669 80.169130 75.535741
5.428900 60.468637 64.417217
34.021879 99.751546 78.683520
2.950802 31.689446 43.623090
68.083092 19.673447 78.265189
55.815555 71.612996 16.360717
72.945757 85.057813 93.447517
83.812062 22.711977 32.859299
39.850746 39.495058 72.629194
85.778513 47.844619 18.717260
40.723316 50.382003 11.240305
42.565286 37.867275 29.227848
88.036355 10.983551 18.451737
47.061448 54.177022 99.642618
16.265882 86.409544 44.869504
43.313700 72.332068 17.328018
99.460550 91.235493 22.972246
86.088138 63.874842 62.790061
24.869271 4.890188 75.580430
74.290353 54.022987 14.553566
33.074969 39.470727 99.006074
13.181595 18.521249 4.745284
26.233957 75.622718 25.581152
63.758680 93.549770 90.450288
23.256118 74.739841 13.006392
54.030659 62.240160 72.941607
94.858054 39.169248 16.905500
83.403904 49.996821 82.279675
93.800278 69.773129 48.164337
60.329636 67.862814 0.155339
64.162364 60.475210 90.050202
57.423906 61.823629 41.399468
88.174778 65.257336 0.818333
93.603107 42.335332 96.233826
58.323414 77.154821 82.250297
72.212357 91.205689 5.403430
40.590278 24.977705 12.282648
73.060908 12.556422 44.394149
29.808959 10.570795 39.964161
21.253154 38.758812 81.330628
60.822568 74.940729 20.393675
88.722468 31.087989 66.408639
11.798689 26.508812 69.516972
58.640285 40.249695 25.806192
55.849418 48.589577 84.341163
56.057411 57.746975 78.904923
43.803658 45.991741 6.268951
19.328822 30.504841 85.559127
12.758434 97.476065 67.063097
64.099881 28.462895 7.054474
84.078945 21.813796 74.479949
71.999003 24.687970 44.883509
57.499130 45.621258 29.271284
33.820985 0.903643 57.446375
20.657478 53.798606 54.136935
78.182673 38.392374 19.040470
48.020076 53.099056 46.671948
41.688479 93.892850 35.895131
36.844700 32.845962 42.002482
95.084761 5.432944 48.984143
15.490967 65.776840 63.528573
34.173874 65.746183 0.205820
29.274546 30.353625 41.568726
76.205915 10.751423 12.437743
33.990987 25.495988 91.001606
82.701809 34.386541 14.034610
49.248776 71.657760 62.092341
82.923540 77.555053 92.747986
66.493581 55.704007 1.388841
84.118661 75.981497 45.488352
23.713147 43.361911 24.574525
11.601487 43.618863 78.531219
53.571928 66.407579 23.884699
47.057756 38.186445 17.281715
97.737215 66.975377 13.378490
37.807413 53.675513 16.813348
6.059081 82.086432 13.376455
80.163569 94.884462 48.912361
27.721411 80.569268 42.722989
45.557141 5.005441 61.134401
24.390013 25.933779 18.206420
5.778641 36.983278 32.188084
93.708822 40.818679 64.770662
93.740384 62.736216 57.246440
65.453721 52.475996 31.598918
19.742063 74.531550 41.092954
99.265227 85.223319 50.559438
45.033159 84.107033 40.685098
17.112731 36.186907 33.207236
49.194485 17.401931 92.640025
75.707101 46.025581 2.423821
42.339017 71.647136 71.005432
65.734941 6.524847 1.573102
49.285513 84.562782 69.502608
26.247961 77.035685 82.341315
86.788593 25.739118 42.761037
21.920042 82.962144 89.316974
36.786104 99.655005 40.998449
98.372948 0.129815 65.363260
95.923955 33.877973 67.288386
5.008833 60.276136 51.248025
18.074655 37.400700 66.476909
9.955627 87.394330 24.322534
76.449857 82.380531 86.774790
73.380078 29.685300 60.869185
61.755673 56.240509 52.432883
48.697055 57.046543 56.873673
71.030778 65.317216 19.277697
86.842793 6.432951 90.884148
61.634022 65.412110 66.797071
7.157460 55.920403 99.473878
21.180492 92.407519 39.099988
22.521325 92.823255 81.015988
86.188056 23.955502 8.182296
28.333661 48.772392 32.232428
46.156291 99.785068 14.934112
42.357310 66.431822 60.779250
91.616931 79.880700 18.380069
99.132516 81.079614 98.963187
29.354809 20.948548 99.503758
80.746904 80.583699 55.434423
18.751306 61.869218 93.646008
72.342369 0.052762 52.743141
20.761602 27.526839 0.245419
81.143129 46.143827 52.695622
33.249622 33.339867 0.176365
2.145454 76.921723 36.515186
28.453366 76.648963 70.945931
36.902656 12.177183 55.786237
3.474866 63.749968 16.559244
79.128040 50.563782 59.461434
42.200563 60.269455 74.185114
6.757216 42.226069 25.838145
73.920110 80.106962 32.245427
47.336540 87.596657 30.761523
55.930189 0.347312 5.570620
12.615212 46.573978 21.012853
33.886923 59.550934 78.964817
93.014165 17.953981 52.154280
54.011875 0.931111 69.799061
0.502057 32.508578 87.362098
36.716654 78.720234 59.487960
77.449343 93.801293 82.100811
87.047371 61.447047 88.410424
70.909122 9.951816 9.153712
20.501298 21.423276 99.701369
73.646874 11.389583 21.442463
99.534290 72.481935 52.946024
52.962169 82.940751 52.535996
80.970161 68.255628 13.666277
38.852469 77.326630 85.581738
99.542261 84.815764 78.777806
54.119223 22.419198 5.795228
99.077505 93.970061 15.012920
19.099062 2.797489 42.969742
62.859839 58.731755 64.452972
57.693180 35.167301 63.872282
35.829511 62.777611 57.639973
96.838786 15.349506 44.378307
78.157485 98.117150 16.910453
90.251341 14.214485 73.189867
36.750610 29.286168 49.930015
65.088829 8.199602 55.329907
87.674743 55.967875 26.361583
8.452524 98.941490 93.476710
73.336842 23.929515 56.276136
0.412441 54.010869 57.600487
93.166347 5.561335 94.166425
37.428990 79.632794 0.591675
79.904748 21.575896 55.006960
20.886866 84.223339 48.717176
19.708209 70.918092 84.703335
45.919203 82.841897 21.748151
95.087897 92.737012 61.316036
65.077632 52.054643 99.265723
79.782191 48.105785 77.573924
92.992931 25.189590 83.544580
77.410485 4.820558 18.126024
21.591995 66.947538 20.429085
14.391372 12.861044 79.351123
94.829732 12.195827 5.884936
63.841665 87.085906 90.261808
61.084745 81.053658 38.879213
31.292473 3.277644 68.271765
31.744096 93.528800 28.131461
23.641426 56.031548 40.697166
54.234792 20.676151 21.985911
36.758230 7.585252 87.098683
9.222121 13.169174 42.885424
0.259557 45.287813 91.352905
89.844748 60.255220 74.906585
21.245863 61.959030 81.440671
2.107540 49.544946 45.174815
79.486731 56.817653 55.024752
58.199383 94.774015 15.190813
92.747080 9.232371 43.626934
11.463214 59.280809 43.542165
6.063249 12.679764 1.737369
40.400554 65.761117 12.597474
41.779936 66.161075 85.520583
13.055649 49.915015 65.884878
60.574296 99.943943 99.020090
85.220855 5.740041 51.480343
11.765315 50.021783 42.051567
64.685227 62.801611 46.608414
18.150376 6.301989 76.337759
65.094786 14.611682 98.498310
64.892971 21.347448 56.518194
42.040210 25.856840 44.366363
50.639959 94.305418 36.052713
32.595019 68.808776 28.484963
74.136811 38.279997 78.766927
5.628146 3.102625 33.188298
46.299857 81.240673 33.539409
82.691321 52.932897 94.300248
11.687581 55.191212 36.522656
1.553751 8.497613 15.459872
84.130627 6.175409 2.582608
59.406547 91.766286 84.176559
79.048678 45.342238 89.581790
84.832527 75.941249 9.115156
7.276665 7.000571 98.991897
51.534031 77.208234 99.997957
63.976928 24.648922 23.681724
98.556616 55.199392 32.464410
74.809974 32.085411 35.348294
58.607897 84.721115 24.158181
0.113121 36.194225 54.461840
82.330440 1.168258 17.131116
22.050776 38.586585 73.887329
83.220485 97.758115 72.050106
7.438747 70.216433 26.924687
34.722246 19.575117 48.159783
63.357873 87.892894 38.021907
58.046914 40.074636 4.351932
45.368789 38.436255 43.690655
21.302196 0.372143 19.624950
48.856720 99.467278 40.424807
90.687391 34.996199 86.153913
6.701379 2.165975 64.178627
97.738665 67.221321 67.189803
81.494914 52.241781 40.695386
36.087995 66.848091 40.870767
88.330175 33.651271 76.131819
61.184748 50.995773 44.523791
35.697329 3.698087 0.211489
51.097970 79.805938 65.733753
12.355456 70.238426 94.198285
80.401581 58.713265 16.546440
93.704279 68.386654 0.479361
90.557578 37.384700 46.521225
26.989830 46.138137 7.716150
6.223663 26.210693 23.851649
6.396795 54.630867 75.662726
63.868155 4.125713 68.548206
96.508824 22.802647 65.150191
50.456813 25.177240 19.160571
25.435748 13.649579 81.661954
18.562673 68.922146 75.808586
23.279156 63.778470 1.080518
67.750423 56.968139 24.922467
83.611356 8.148206 45.913840
38.454761 97.981810 58.115894
86.636051 1.642442 86.372090
50.534427 32.088945 50.094501
41.826175 87.353374 60.487513
42.507010 53.215835 21.154639
39.362433 78.729047 98.901169
93.557943 94.951626 36.926560
49.881639 68.737863 36.830096
19.241220 71.131033 48.864330
43.334947 45.838339 70.217994
92.589987 0.130330 33.283920
32.190794 0.226180 21.132609
93.460094 49.068342 43.747371
83.787226 55.679286 87.210110
93.449867 54.190305 59.791128
35.648700 87.374937 6.756046
67.728088 71.818963 96.618214
43.604902 28.282485 30.808791
63.592162 63.769675 33.575607
66.705186 84.818411 0.268864
64.586273 20.420628 43.828046
23.669070 36.522843 4.468757
59.866492 88.643127 2.653446
0.023411 94.875815 73.972736
58.776577 71.524671 91.085960
28.670828 73.803827 94.239520
7.957942 55.184210 61.680616
14.246414 91.340953 28.652818
10.482983 82.143431 91.933629
37.752875 48.119244 75.363055
87.345860 23.307492 69.509708
76.866585 44.983002 40.029839
43.840287 26.869093 0.068569
16.062988 78.631375 15.643803
42.753479 55.377798 39.016370
59.891487 15.541723 14.041867
29.637134 8.837482 29.137166
76.624710 0.895466 69.177574
18.940951 75.971878 64.861328
22.139459 17.123579 28.694816
42.343182 13.027874 20.478022
37.543931 91.851840 14.813310
93.724986 3.308161 9.406801
12.079574 84.210408 62.860608
11.787693 13.785202 73.122334
15.541939 34.621600 93.620182
91.302067 14.393761 61.527283
16.684462 54.621416 26.975363
11.689490 93.772524 1.056233
84.344467 29.236134 17.691546
61.959579 14.087013 23.344418
31.504886 15.750990 33.618976
80.415665 4.059670 36.102636
14.495548 13.898969 65.528919
96.945806 46.419908 8.939807
77.161917 70.206577 95.273682
6.218602 67.443495 73.370040
51.836891 20.636530 81.191586
87.046938 43.017228 45.587069
34.073907 53.476457 5.402719
60.966045 3.268013 27.972099
41.218632 64.542234 1.752813
34.041587 52.156314 66.383743
0.382577 16.549351 93.393878
99.954390 63.619400 33.283516
92.213924 15.398397 78.846059
99.154267 92.962895 55.795061
98.584878 31.922301 0.013008
93.714438 78.733371 44.525972
75.804646 5.405463 63.848539
11.625796 77.560362 9.519288
19.860671 28.211572 51.420266
63.969778 45.189289 6.268230
19.480075 16.710094 92.514176
20.400417 97.300115 71.937965
94.682831 70.492735 85.441274
44.107620 95.521301 70.447042
22.611452 64.542797 29.036430
7.789239 44.994117 38.332552
35.738752 38.185734 44.721114
74.373555 71.385661 30.739014
4.983968 9.529104 93.550369
41.023188 22.353535 5.709792
60.761847 18.528544 0.045295
50.409171 22.137531 35.475345
33.354276 83.486393 99.895146
83.038375 99.246557 29.658939
98.956973 43.930328 60.163597
99.179861 53.255478 51.550554
34.702464 22.485144 82.534215
23.743580 57.138557 26.027103
7.004953 17.153283 16.757953
77.140916 33.053373 68.072641
26.298490 29.482926 48.771566
12.841783 92.394565 84.930721
78.294958 31.213724 77.697977
20.547141 2.853480 50.222754
12.374311 2.003820 62.003726
14.838197 27.023469 17.514072
74.601591 34.608057 90.558010
14.039053 43.658365 26.656804
25.604116 94.125555 50.982693
46.019571 0.141488 50.556783
50.526038 93.391132 99.562498
38.415047 46.720464 82.478779
0.779325 85.106124 24.390922
56.448323 63.855705 78.410619
3.589705 62.628891 76.406499
45.117183 56.732689 2.382759
90.426841 79.123223 72.163789
99.769489 90.291756 30.738641
79.537682 84.886793 80.556124
54.827759 62.269002 63.041174
92.578827 99.908924 53.661174
73.607215 73.284704 9.391569
49.279885 48.426395 75.274303
70.431347 60.284063 93.269952
61.917639 79.255896 66.229188
7.644525 3.678879 0.426713
31.849358 49.828815 53.627606
68.691021 72.449383 13.344092
85.090260 39.981519 68.879589
66.237085 63.935604 7.103188
96.437800 94.474329 73.120419
64.690907 5.792980 13.579707
94.758604 86.515026 91.539449
36.983202 12.019611 66.660009
85.096243 59.996686 2.704396
74.438825 32.474675 0.878695
21.592359 55.523937 6.356327
93.875685 63.086168 49.654405
50.491328 74.223841 93.452140
62.802031 75.777765 27.839854
44.621996 16.904152 33.419092
26.649971 80.775069 94.026834
51.045022 15.521174 60.003152
69.534581 36.999553 0.045028
1.282504 46.594343 61.575247
18.928527 32.863111 71.016144
63.058091 94.519228 28.950553
84.886817 42.244845 35.331843
45.375725 50.570692 1.534894
9.277276 64.025705 85.113348
41.067907 88.649168 31.654159
75.859931 22.599691 14.070355
28.380080 77.817292 31.764935
65.382749 14.462121 53.706796
32.570493 58.252829 55.346109
29.472637 70.323242 41.468329
53.182796 17.311109 0.983476
54.123431 99.562607 73.403307
89.685330 61.931958 68.772010
41.885761 3.414177 36.892155
13.471310 19.808406 35.344240
84.288074 75.133527 70.620247
33.016344 88.248311 23.518696
40.791473 45.221309 61.796195
26.359434 37.131070 34.336133
68.833587 9.102841 36.944527
33.959309 44.601024 49.510885
13.603355 59.808296 82.929337
80.829211 14.991107 0.446005
26.101303 99.199468 43.146527
92.630323 71.532795 35.924128
33.978706 65.893403 18.931084
6.921972 88.588728 78.572662
60.041430 54.873608 71.550209
52.467874 65.205583 52.675368
75.833200 14.734481 37.435551
0.758721 7.276281 60.907110
94.328501 83.743672 37.611717
41.035888 36.413785 34.856421
7.442001 33.838153 71.721837
30.190105 95.233801 55.005396
52.903977 99.934086 56.619688
21.856759 93.574170 17.148052
72.822094 50.425043 29.203509
67.018390 45.741452 35.663786
20.254654 68.472252 54.338764
11.757014 4.698700 17.646943
58.061324 52.316014 0.613012
67.354567 30.365369 45.839492
72.088408 9.637372 86.519291
81.014881 30.141277 54.016276
20.273612 99.642267 94.495108
66.000536 28.208824 34.204785
69.973079 63.515409 86.230033
70.092758 34.692601 37.980313
34.770496 12.277072 1.077025
98.659361 63.160542 72.714461
25.992066 19.816750 55.734736
43.805608 18.483292 18.463727
1.674927 61.853580 31.000051
22.449237 21.071250 71.459980
74.512770 15.997304 80.392718
6.368725 89.007588 99.304773
33.416441 89.239490 94.074680
60.390328 13.911603 73.827819
1.817407 48.537640 68.835265
59.438542 38.379380 85.166431
10.725420 71.173022 20.580355
48.137687 65.666352 75.317408
99.095939 18.812772 26.422223
12.557115 99.819981 79.766686
82.182420 12.918838 62.824115
41.483002 98.722686 24.981846
92.789176 20.636706 60.506808
10.230117 52.862169 86.605152
31.410817 43.219077 23.377303
70.554661 53.285643 94.939390
76.570688 36.204343 7.441221
31.913193 99.280596 44.877372
61.724955 26.805937 82.648010
85.348355 12.754377 42.520379
46.581136 93.358871 78.627970
29.063593 88.502247 47.980545
70.228112 66.209189 57.480840
59.004429 22.767895 33.113257
80.877371 56.263173 10.286518
96.093606 36.978143 92.772280
62.042340 46.943823 63.467087
67.903013 82.053597 20.588618
39.784872 74.320147 32.815751
36.629661 89.812090 99.567099
63.907031 96.384146 78.741167
27.358381 5.913899 51.554858
75.922800 37.977952 63.897133
41.625894 72.159919 87.395268
84.321322 14.790377 32.870551
38.978478 74.677301 5.632113
59.608276 59.178940 34.380358
57.525004 87.001966 46.090432
0.441813 82.230944 3.198648
14.784035 92.872314 70.668132
85.699711 87.491579 6.705935
84.951024 41.882955 91.062217
86.884184 88.820855 68.207822
30.761810 88.787437 72.509800
26.381537 62.901956 40.247829
90.226784 36.298652 55.715955
91.873265 68.653226 80.525722
87.744585 33.243376 99.425320
12.574745 47.254900 92.926580
9.462892 78.647284 61.995282
49.944706 93.900778 46.802123
93.539186 44.913346 20.978170
0.922282 80.492864 96.639895
5.870890 92.577967 0.726688
98.693866 81.004113 13.404786
6.736887 36.321115 17.659682
95.402867 54.052943 65.833520
54.036734 88.269456 98.734826
3.611515 29.538400 77.935946
30.627570 67.737590 80.535065
91.229604 74.215169 54.386691
47.084532 62.763259 98.009504
27.353437 35.089112 58.085461
44.910053 59.474444 79.801419
45.630168 99.199098 95.196705
99.489896 47.098025 27.184465
26.237278 98.635412 17.106482
88.985913 49.683909 70.963969
42.945053 28.087266 74.515491
20.115420 42.022409 89.432044
67.219784 72.430957 39.978134
93.188662 86.021097 16.325826
7.946584 98.539845 29.758189
45.198163 10.584833 78.841663
84.697857 86.595180 44.020784
33.184311 10.933655 50.272094
34.601088 44.140865 0.052531
77.142466 23.068648 27.191352
85.737844 61.871846 80.062187
48.244134 37.659393 27.517016
68.881081 99.726385 9.446744
64.747920 20.191798 8.630677
81.729553 54.720560 28.964037
44.908171 59.993911 10.697874
79.620227 7.228687 9.103498
16.484969 50.546836 45.606034
48.999159 41.157304 12.405390
49.949827 55.349631 77.132939
60.516984 70.614509 61.651173
23.645781 93.906616 93.986974
30.471879 62.895150 66.122753
44.547688 13.112081 95.132905
97.996417 3.586821 40.167679
56.049091 30.804938 55.943275
52.404252 76.166405 27.206865
92.232231 79.577981 57.444967
77.916975 83.574606 25.344156
83.247440 65.447664 71.659019
94.447086 58.763574 70.297069
33.747472 26.133003 24.326725
53.757601 58.436730 15.505172
37.304946 17.915801 41.793309
8.886826 12.041307 65.870538
52.592253 56.961271 34.448017
58.299686 56.350084 8.684084
80.547521 37.807576 82.586551
37.236651 29.755492 68.142916
15.120837 44.510760 50.295544
84.882296 20.085344 61.186678
25.108797 9.660526 20.311168
61.558790 15.491571 40.530024
72.245667 39.364381 15.438965
99.948062 28.557351 30.554439
94.887329 30.270806 24.692701
20.415860 64.015607 87.517010
30.169649 54.592845 78.278748
76.983629 66.185243 74.388244
97.506218 59.302014 43.143600
92.560937 18.698455 26.045103
50.582025 88.755075 23.235732
98.927483 89.015665 68.570730
36.119606 35.718714 50.077809
11.233236 4.006776 51.830116
17.691154 95.794703 59.739476
7.271558 18.825326 62.907225
65.972816 49.107380 86.468610
82.390868 69.314559 44.576241
29.509962 80.302598 88.634506
12.700931 88.352828 13.635783
6.699535 43.185557 90.235613
8.984188 35.033673 44.604569
94.100172 11.477365 93.293999
29.407506 33.432412 69.180213
69.301916 46.213914 79.129667
84.100276 78.782493 80.403802
42.239287 25.142704 81.007497
12.096272 33.375836 75.460250
11.182379 17.273041 54.240159
59.676516 22.212703 88.300568
70.790087 73.442416 60.395575
60.826830 48.187093 57.837660
0.919960 17.143374 41.331644
52.967075 25.216006 57.991217
54.195286 30.241466 43.894451
3.403508 74.848041 84.647062
92.776714 29.831028 61.361737
63.192064 98.803694 3.845962
48.665382 27.171547 85.475946
47.601475 15.332225 28.391802
20.876472 43.596560 12.232089
63.655231 39.390493 43.058392
90.422172 18.067715 35.690173
24.255053 48.385562 21.559817
16.779599 86.920491 92.005763
49.766386 35.657377 37.553630
85.009216 63.706461 39.667069
76.810450 24.880883 3.896847
9.451881 74.618916 32.784298
42.879583 0.286519 64.051212
10.970815 58.860672 15.105937
27.035516 34.546716 15.530091
20.458410 27.130152 35.093513
38.094520 94.584378 88.642288
47.197063 24.482700 24.827818
48.348647 88.342061 60.560642
