2.718059543294012315e+01 5.290490203232204180e+01 1.062945240890835663e+01
4.755282660134366779e+01 3.840818956839330411e+01 1.662030152406224204e+01
4.694199440269420620e+01 6.175892774225882675e+01 3.821253256642044249e+01
2.806940932072595629e+01 4.158079759970003408e+01 1.180071373370796906e+01
3.694844435558787410e+01 5.796401756913117964e+01 2.195889977736074172e+01
2.828012912468886952e+01 6.778740567989598276e+01 3.670218954898538755e+01
4.595682003656619230e+01 3.047791842131920603e+01 3.184628439417177503e+01
3.608556271280193073e+01 4.433131432986474607e+01 1.525237708737832065e+01
4.859724077749799420e+01 5.670014035850466882e+01 3.230309179629846739e+01
3.042912440528485618e+01 3.545503113451962207e+01 2.222432112748150601e+01
2.816509041775913147e+01 3.409917121532360085e+01 2.261954009096858087e+01
3.844657903115408004e+01 3.724838165099411214e+01 1.340087771403990402e+01
2.040095716843059037e+01 3.508154867081034922e+01 1.660261494863888387e+01
3.246874898793855380e+01 3.740746047010424036e+01 2.406000033923131198e+01
2.230465706516675439e+01 5.991636303330461999e+01 3.606327608641536386e+01
4.136927275209822596e+01 6.885828589034464642e+01 1.539481323634462839e+01
4.260449005477218520e+01 6.409041280064597856e+01 1.476283008559448007e+01
4.139544552188188220e+01 6.584545240228842999e+01 2.072594339781324990e+01
4.711857218568022176e+01 3.106466789587951638e+01 2.213403634329090863e+01
3.627788100292161033e+01 6.771982879414004231e+01 2.067070185513851754e+01
4.825191593349926933e+01 5.791818123366985560e+01 3.543638761258057457e+01
2.582527654616589885e+01 5.246938140894973657e+01 3.800490128551309255e+01
3.476672293545338732e+01 3.365424380687640848e+01 1.941156641556812801e+01
3.244387962796197655e+01 3.180139452113439802e+01 3.491764842710311711e+01
3.169294057722595781e+01 6.459658284004264317e+01 3.409088666720106175e+01
4.104303880122648707e+01 3.032315160902000528e+01 1.441547991909818371e+01
3.853667473422557066e+01 5.866155063857626573e+01 1.531929725611496096e+01
4.751277474010132806e+01 4.097441352163081518e+01 1.509371260699676753e+01
4.209704439292979572e+01 6.758185581762953120e+01 3.761131441285338894e+01
3.607423665300770921e+01 4.862106846243120373e+01 2.241865541315580757e+01
2.293409124495664386e+01 3.710798181558349995e+01 3.253921903995708220e+01
2.744473808231532175e+01 6.601477232385745708e+01 1.450156143424166189e+01
3.740103210810157464e+01 4.434659108622444990e+01 2.800251166528925495e+01
4.622768916870268896e+01 6.707940017317449133e+01 3.463440433090765680e+01
3.194805509033539082e+01 4.786759019190256481e+01 1.418781118596160695e+01
3.562005884223184893e+01 5.703450528299936906e+01 1.107141471712310654e+01
4.381598699042804412e+01 3.938505347676662893e+01 2.447657556501140519e+01
2.549513087348569229e+01 6.612557819646832513e+01 1.840232659660321346e+01
3.435943761362810989e+01 4.588560858960705247e+01 3.978055106404847407e+01
2.131382339810312487e+01 5.211492171820481900e+01 3.176792229570601833e+01
4.522047201819885487e+01 6.411805295316752051e+01 3.358908200868000193e+01
3.291425096633683012e+01 4.074346905526630280e+01 2.696819627213282899e+01
3.321616549107994842e+01 6.378354731018330881e+01 3.053455085531630075e+01
2.107669516714424418e+01 6.216652265405956257e+01 2.670890964049800331e+01
4.189053063129995991e+01 3.026150886649566729e+01 2.253106145940419935e+01
4.557193115080452372e+01 4.143021728278036875e+01 3.289189618028832740e+01
4.037254729251588969e+01 6.465944069984381315e+01 2.588872464363353032e+01
4.230975377312154961e+01 4.876605912384003005e+01 2.254867554881787584e+01
4.367526614782442351e+01 5.269535136744904236e+01 2.154873160868571347e+01
4.617273536070713646e+01 5.588291780468608039e+01 2.620405268086322081e+01
4.642347510482793638e+01 4.189080427072493507e+01 2.652914831439572296e+01
2.120207871200527805e+01 5.247369544041446687e+01 3.232546821260379488e+01
3.206897100313913285e+01 5.785676463374791467e+01 3.054262259355245845e+01
2.492607250728368129e+01 3.975482858616171455e+01 1.773088452161672990e+01
3.346564174106121214e+01 3.990088052069502567e+01 3.189439552915170850e+01
3.322003263137678175e+01 3.777266911116932135e+01 3.357494619140469894e+01
4.301170396275129093e+01 6.035243963072179696e+01 3.103020299660059678e+01
3.199252542394905774e+01 4.009445494104486585e+01 2.516037269365165585e+01
3.193538703387034516e+01 3.358598489691706845e+01 3.713220350596739650e+01
2.908174819284118229e+01 4.523156830279544494e+01 1.151654684681051677e+01
2.069824797011565920e+01 5.056480818249337972e+01 1.980494208530951994e+01
3.965401576990175414e+01 3.510827613673605185e+01 3.992909477620099068e+01
4.385801610168109477e+01 5.374910000477506600e+01 1.499769878206225115e+01
4.779750507003043225e+01 3.075091771687781161e+01 1.055183563130674962e+01
3.980009059853463071e+01 3.602039847216725832e+01 3.832847071593685939e+01
2.703369682046504607e+01 3.267462723211573916e+01 2.513777129933836108e+01
4.848122433616413218e+01 4.149098961956770637e+01 1.727240600814577931e+01
3.830660428224661729e+01 3.237302361916308513e+01 2.389605958857211476e+01
3.228957107556773565e+01 4.663489279251733421e+01 2.801391673291484352e+01
2.541382955387542353e+01 3.303667359511326396e+01 1.473481784662417127e+01
3.162525554649979753e+01 6.341898639081363598e+01 1.312106406235730205e+01
4.541194438117371845e+01 6.235472005932941642e+01 3.421229462864785376e+01
3.200225950197913249e+01 5.280966455906012413e+01 2.421998438389261210e+01
4.009613453362081970e+01 6.289304815215952260e+01 2.860103621305679766e+01
3.082579717141236131e+01 6.283707292666878175e+01 2.237409111415099616e+01
2.410575929473671764e+01 3.086624505661622564e+01 3.492480079776766644e+01
3.749622396582772410e+01 4.533392713518218642e+01 1.897446464565014779e+01
2.686177020137108329e+01 4.221589279435209363e+01 2.375527859866989289e+01
3.216220733312661650e+01 3.572016487904490134e+01 3.901145843841406702e+01
4.582950314942635117e+01 5.952682723983583202e+01 3.807563860487319829e+01
3.138941267940634816e+01 5.156926763253816404e+01 3.246511887961105458e+01
3.703866438301299979e+01 5.539873011842531270e+01 3.082443813155227730e+01
3.355327059122168265e+01 3.730510692559943209e+01 1.430959343259826611e+01
2.549937970399454201e+01 4.872283953133864998e+01 2.295574917416708516e+01
4.473856640651644767e+01 3.056444096040076275e+01 1.587584304132247937e+01
4.210785666904313018e+01 3.310809133087580136e+01 3.310525094921562328e+01
3.387097295755400239e+01 3.511301321805002829e+01 3.320125390009959432e+01
2.530089509276685078e+01 3.814574030376737568e+01 3.559111948370492229e+01
4.672986933094589546e+01 4.763884288798586653e+01 2.745901135861316078e+01
4.822168682254679339e+01 5.933075328042529861e+01 2.434570223893913621e+01
2.920798607763381938e+01 3.873450341777170536e+01 1.892535394082159783e+01
2.065706190362034533e+01 6.709746876230346402e+01 2.761437742306210907e+01
3.370827668802252930e+01 6.777561159493521359e+01 1.636551449850965767e+01
2.550143320985788264e+01 6.491471745185285158e+01 1.095030868634977494e+01
4.102334774474323353e+01 3.616874854491476299e+01 2.844524029956183497e+01
3.333827693960409277e+01 6.270992366868966883e+01 1.015249502408090976e+01
4.195802420643877895e+01 6.820234078286365786e+01 1.804187368302255834e+01
2.558475495009303557e+01 3.105510152680863811e+01 1.921028664712541811e+01
4.107090995907739739e+01 6.822393693321532737e+01 1.906925065773507200e+01
4.453810192426560377e+01 4.358215750655956100e+01 2.940284557838840485e+01
4.065442065114370962e+01 4.998221483473444948e+01 2.663165666719545754e+01
2.691218362343184012e+01 6.859054136650435396e+01 2.332250359948259089e+01
2.222201933411577102e+01 4.621332283321457624e+01 2.638182950340056721e+01
3.524558904882663057e+01 5.348254703945676169e+01 3.082604632896339680e+01
2.608697528453056691e+01 5.481979573729822874e+01 1.428144979216845556e+01
4.521857447206502911e+01 3.350118805214851392e+01 1.051573568865011765e+01
4.454026367661126784e+01 5.887960177553295438e+01 2.270557736547572603e+01
3.120253974311579981e+01 3.113763907279535204e+01 3.911308001569766191e+01
4.413622136592238832e+01 6.641738533586017468e+01 2.983193037696601024e+01
4.685663168057562444e+01 3.725215038563722914e+01 1.327246152361843912e+01
4.150402400393286939e+01 3.398596003534325405e+01 3.820541044509074879e+01
2.494229329945761720e+01 6.113082263138892358e+01 3.300604531079611803e+01
3.861482557776190561e+01 3.170177004271638310e+01 3.029482952349832203e+01
2.750607147413744968e+01 4.083134549540969971e+01 1.641558068412605209e+01
3.347754886521615703e+01 5.123850862169560827e+01 2.313259452088033541e+01
4.057354738779054060e+01 6.495670767041573868e+01 2.648172549410993071e+01
2.125436660980908243e+01 3.912685436511068815e+01 1.034149669004395022e+01
4.461230359888710240e+01 5.825185740747102159e+01 1.035316568613530208e+01
3.863958228693618935e+01 5.900641332549147933e+01 2.597318251470968065e+01
3.914558751826039185e+01 4.861646653522507933e+01 1.020047623816756577e+01
4.851364965061010537e+01 5.768800285016478568e+01 2.620408226583231937e+01
2.755810375092141484e+01 3.415910478218173552e+01 2.673408494321109075e+01
3.603208634069036265e+01 6.857191888426447690e+01 3.394446764415442175e+01
2.383803189879852980e+01 3.294471204845477530e+01 1.110450969139076349e+01
3.973244493740706673e+01 3.110107188772989062e+01 1.150220403794056701e+01
2.250176692276386703e+01 4.533361767574625389e+01 3.177378008576627977e+01
3.404330351256083276e+01 3.001424172879395513e+01 1.826190685100126387e+01
2.185016888538677904e+01 5.419143899426309474e+01 2.342282141879483603e+01
3.461777046343331676e+01 3.187697996874490158e+01 2.767125815370727793e+01
3.933426043108273262e+01 6.575751829878292654e+01 3.580834860109705886e+01
2.687334966603140884e+01 3.185388361263298407e+01 3.131122465636519792e+01
2.160867665607999299e+01 3.683353636461637137e+01 3.373104018006051064e+01
2.618356405001338771e+01 3.952658156431716208e+01 1.161044748386034264e+01
2.568052818060048281e+01 4.530258693902731437e+01 2.837308358693966426e+01
3.343703466591438911e+01 6.668498901835307890e+01 2.748676620608435783e+01
2.420379787776274583e+01 4.379510555271126293e+01 2.673874559706263909e+01
2.576318797540806571e+01 5.862789469010321852e+01 1.520558711165058696e+01
3.756771461766977893e+01 4.414267469183307213e+01 2.602302002109642132e+01
2.529305362425735382e+01 3.241660002633756932e+01 3.012489120519576957e+01
2.740337825629451984e+01 6.841588417136875933e+01 1.329567042342364402e+01
4.247522870836265696e+01 5.030329781706802805e+01 2.696673174915362736e+01
3.328759586974802431e+01 5.025872060453723122e+01 3.704161132584308547e+01
2.595294454806075279e+01 5.333620290351340998e+01 3.494990214782573190e+01
2.642458010265085022e+01 3.409274588276842621e+01 1.555948400844837565e+01
4.434745263022081474e+01 3.911803621796162389e+01 3.340083779422344890e+01
3.833853859393057206e+01 5.791416572370559379e+01 1.547585480344796416e+01
2.701599307629789593e+01 3.921339933953807844e+01 2.460672849755658476e+01
3.061593567453414622e+01 5.036525206002045962e+01 3.221719237803615243e+01
4.020958585196119373e+01 4.334087918896929637e+01 3.183366064691196584e+01
2.063811031623207271e+01 6.220817309398143635e+01 3.921436041726232702e+01
4.888510709097256779e+01 6.173968080802357861e+01 1.665976844021799153e+01
4.185056410665861648e+01 4.295129541021932340e+01 1.435474996151471316e+01
3.551317551295706210e+01 3.608280738105612784e+01 3.023437528108960848e+01
3.077279486016113452e+01 3.932672571046447985e+01 1.776583572666148214e+01
3.156816142611098641e+01 4.281509273560727280e+01 3.614726711345014110e+01
3.884916068595887140e+01 5.473533616080676723e+01 1.060499735612360261e+01
3.158208642097605079e+01 3.533499680674404431e+01 1.409917403019859172e+01
3.476055905851330863e+01 3.408284839499690122e+01 3.714512025821125007e+01
2.807783038546007859e+01 6.566737956890825956e+01 3.019579872383945229e+01
3.073172601328803921e+01 4.048676379833436556e+01 3.991238728920976087e+01
3.179099984910557097e+01 5.106662744818758171e+01 1.647274776954631292e+01
4.470134280307642882e+01 6.340578948091770428e+01 3.109871506619609249e+01
2.338354608472646845e+01 6.597016035335299478e+01 1.891908264106966087e+01
2.494649044258012793e+01 3.478191012261396509e+01 3.994960628279113024e+01
2.632128096538982476e+01 5.707972747169414163e+01 2.435269961260125982e+01
4.996623215563467113e+01 5.926960142485100391e+01 2.442969476782124261e+01
2.282874952575270200e+01 4.114650762903954018e+01 1.416005372864447232e+01
2.508601615223563641e+01 4.639377510320738196e+01 1.859848638220296024e+01
4.845175575769064835e+01 5.958309766867919421e+01 3.266093023987153288e+01
3.782247102941567363e+01 6.154831021278462799e+01 1.023219441359052340e+01
2.260343720512329924e+01 4.727301523032920727e+01 1.838814821182230830e+01
2.285089263826207784e+01 3.572215915992197210e+01 1.757378639771200923e+01
3.414272705295282861e+01 3.404845780819633205e+01 2.116399945750594469e+01
3.398678057247531825e+01 6.330513483147983322e+01 1.775700855214331497e+01
2.820532707012915097e+01 4.050078450710918077e+01 1.655422284363118379e+01
4.063135412044975681e+01 4.399824883088709981e+01 2.084723772498871952e+01
2.838032686986768738e+01 6.285668483545527607e+01 3.879290447870341296e+01
2.657726213229758372e+01 6.637444643697524782e+01 3.247636665922463095e+01
2.635470118173862630e+01 4.770965961574227521e+01 2.398526375017019419e+01
4.888219341919637628e+01 4.676244718335339456e+01 3.711502341114707804e+01
4.979372477518970896e+01 3.775740226323184601e+01 1.504511342382011208e+01
2.261852324479021092e+01 4.036992880792437433e+01 1.566150190483593896e+01
4.330366010871819071e+01 5.220501519162252890e+01 3.700439827089287093e+01
4.553228521043573096e+01 3.202108019678648532e+01 2.707532045196551351e+01
2.796224996540016505e+01 4.085226232333536700e+01 3.306626756446644322e+01
4.868006824616964678e+01 6.226073384453824389e+01 2.096778858266924317e+01
4.026477432361844677e+01 6.231143175949992496e+01 1.922587859099259688e+01
4.585352359125047883e+01 4.923790914749036318e+01 3.680969634147179903e+01
4.942116598658456894e+01 6.318887582936759628e+01 1.976103839219084435e+01
4.021622128457950396e+01 6.493613758583720141e+01 1.739843180787336152e+01
2.135195017329475320e+01 5.914903448601275215e+01 3.980597630653690544e+01
3.321664690857875257e+01 4.894402846063442780e+01 1.869203893864093047e+01
4.942959657890286707e+01 3.475869370164149785e+01 3.165252337346728950e+01
2.519405258984469498e+01 6.531862178321364354e+01 3.534014758268057221e+01
3.802697760918989189e+01 4.148117013534032083e+01 3.880024843408107671e+01
2.992875907632854648e+01 5.115059316390144772e+01 1.156927310220885374e+01
4.445415321623622162e+01 4.165649462866291231e+01 2.755025965239228469e+01
2.093638406852686984e+01 5.534199970956852610e+01 1.454110900388096894e+01
2.788015238966510267e+01 3.657891166834973262e+01 2.508837558523411104e+01
2.644751828049233211e+01 6.779530848237533291e+01 1.166324489674997977e+01
2.478606687982617274e+01 3.276206215800883115e+01 2.240247392312076968e+01
2.978852606193444075e+01 3.447984988531892725e+01 3.989956614383686428e+01
3.524057777312078343e+01 3.879311671018265173e+01 1.622189184041641496e+01
3.319319316858858571e+01 3.180801063554805808e+01 3.772659204805193411e+01
2.693673091085279125e+01 6.724964292075462424e+01 2.017486342265010180e+01
2.766521366523357983e+01 6.816361543767084186e+01 2.925065541550203463e+01
2.559992240023019150e+01 5.033225505058640437e+01 1.878624692551226261e+01
2.026071864533757250e+01 5.418704041848073416e+01 2.365196654571601798e+01
4.658879517042452534e+01 4.626571162181277685e+01 2.911912671361385208e+01
4.531008539439469729e+01 3.982570276167113121e+01 2.654040532647301376e+01
3.399604493031625196e+01 6.838669942941399427e+01 1.499683402401084109e+01
4.677193258960529931e+01 4.222716384282361446e+01 2.981908547000764287e+01
2.147369968249008920e+01 6.540766214376752430e+01 1.942587488793530071e+01
2.407958551133926406e+01 6.615943796310094172e+01 1.816293589719183288e+01
4.450431414948352682e+01 6.468876340729482877e+01 2.251264255868086295e+01
3.030566493110285009e+01 5.836213254299899234e+01 3.861330662786907197e+01
4.191183543070287243e+01 3.095821839088010918e+01 2.157672306255211581e+01
4.465295655221191140e+01 5.517329606856860380e+01 2.998326342447164095e+01
2.717870956482366651e+01 6.209594820504062085e+01 3.075424545162800527e+01
3.803491432397533600e+01 5.136727205220589099e+01 2.972875241187531259e+01
4.388929426741859885e+01 4.953605580361652727e+01 1.145276928175338327e+01
4.110519112483479631e+01 4.334037581787754334e+01 2.836002206926156077e+01
4.481139766346603182e+01 3.249911137981255393e+01 2.324908411657162688e+01
4.668715531989335688e+01 4.539426501746174125e+01 1.104454639882257538e+01
2.881524569339834940e+01 6.965847549989851473e+01 3.527055349917119997e+01
2.421501880693111985e+01 6.765887623150717900e+01 1.272862553203479763e+01
2.764577529449554305e+01 6.850045020932395801e+01 3.718386318359809906e+01
3.039207318994845508e+01 5.787653593500211713e+01 2.174043170102019218e+01
2.697825522176199442e+01 4.738053437809217883e+01 1.038622953555311490e+01
4.081971700560068683e+01 5.194969158554880551e+01 1.883088814746606232e+01
4.604132401217921711e+01 5.039188907942961038e+01 1.720204664235277647e+01
4.031415181927356173e+01 4.137594575500689587e+01 2.144974744331164018e+01
2.657169406701620318e+01 6.243411726080292112e+01 1.601716339470052830e+01
3.583956730016323178e+01 5.424278977048552264e+01 1.661408750061159623e+01
4.021446550496359151e+01 6.451124911964112130e+01 1.047847350251500664e+01
4.630703528647245548e+01 4.251218893157172829e+01 3.664170635378864205e+01
2.494361937782850802e+01 6.894956580029658255e+01 1.249903274687718024e+01
2.626730435996599411e+01 5.433057005406682549e+01 3.118449086904284684e+01
4.915913160994579556e+01 5.173740108438394003e+01 2.833939154380002989e+01
3.802041315909248453e+01 4.680570875725285163e+01 3.257345348361763371e+01
4.413397727924645864e+01 6.862065119552275405e+01 1.638658821836683899e+01
4.292548351381154959e+01 6.272902041411354901e+01 2.466099335899711775e+01
2.966699659701320613e+01 3.352263077610690090e+01 3.872979299679398935e+01
3.357046884170910062e+01 3.523502725389581514e+01 1.951701745513889819e+01
2.522215396125668718e+01 3.549885757442539358e+01 1.493919540397941148e+01
4.056798154944971913e+01 4.042664374191993204e+01 1.449172205136939340e+01
4.294562284848769451e+01 5.218641945506087154e+01 3.140460061336412068e+01
3.473570223353637942e+01 5.449293389970142698e+01 3.639210210191160400e+01
4.168526031115509056e+01 5.835919496245172411e+01 1.232529306197639407e+01
2.338396179345177828e+01 5.933591688647072004e+01 1.816435717942852435e+01
3.189206327354649062e+01 6.083897608752345576e+01 3.991237727694857540e+01
2.722686239693903332e+01 4.348305656656250306e+01 2.191021318086614400e+01
3.508953589521379968e+01 5.124061638146923059e+01 3.531218952796747601e+01
3.018945634779878162e+01 3.329495714476777835e+01 3.980489793670704302e+01
2.031933142446168361e+01 6.278167238828110897e+01 1.588028167058529405e+01
3.681176477416592263e+01 6.523111841346684514e+01 3.688354676194899184e+01
2.898588733529716777e+01 5.281891646711247290e+01 3.848330504339087810e+01
3.128608638169107081e+01 5.575526611187218151e+01 1.976196008439264773e+01
2.851440887007662539e+01 6.578772114806518800e+01 1.247864063340904295e+01
4.309706686404209819e+01 5.868384749262565947e+01 2.247125758154587771e+01
4.653773949578808811e+01 6.230373846429472451e+01 2.327315489533655679e+01
3.635837730317928873e+01 3.848926212762162891e+01 3.735440496762871021e+01
4.845121593280109806e+01 6.359903538080266827e+01 2.130725848481383977e+01
4.230959658142381130e+01 4.065018262341377664e+01 3.691454717202262970e+01
4.502100119858582161e+01 4.037345974553075223e+01 2.977645007536072796e+01
3.034321015108702824e+01 4.659948772879901924e+01 2.748775279417601070e+01
2.107634062092786920e+01 4.127779765991689231e+01 1.360751773031243417e+01
3.120013821973898160e+01 3.549306676910196501e+01 2.317689872491295233e+01
4.280746981035756704e+01 3.427579155374665021e+01 3.776815438157886717e+01
4.206253564836111281e+01 4.700270418035883324e+01 2.871446028040126563e+01
4.961292665812497660e+01 4.655447351845673865e+01 1.048291664323229888e+01
3.118602065493342224e+01 5.011746500068534260e+01 3.954350128984018653e+01
4.910007702415397546e+01 4.734255565608309269e+01 2.733191816833075904e+01
4.473966894677936779e+01 3.690831665255349492e+01 3.322663414261095483e+01
3.464204187666097567e+01 6.993967750023736585e+01 3.691432890511489973e+01
4.230174014062776422e+01 5.344985911655935240e+01 3.355736542857628280e+01
2.943937031311213559e+01 4.326326702170375427e+01 2.606844716623069047e+01
4.183045074940523733e+01 3.552554666135841899e+01 2.345667774291433361e+01
2.359502309241013762e+01 3.583498211898123742e+01 3.148102087834691076e+01
2.541959760696988013e+01 6.997654967304303852e+01 1.555566080578610944e+01
3.812498512462866529e+01 4.173666534430077490e+01 1.276498640469607793e+01
4.435751989828435882e+01 3.118408551208143820e+01 1.881106084931580824e+01
3.331843496982970265e+01 3.511748737051292579e+01 2.366784443062096699e+01
2.815035542851892458e+01 6.361143656287838866e+01 2.703930278966194578e+01
2.398304491356743995e+01 3.663732033647747244e+01 3.891142880985831454e+01
4.295218763473570789e+01 3.346281642330878014e+01 1.069631586860237960e+01
4.371440439612396034e+01 6.690568171815773724e+01 3.171252182060663216e+01
3.874129195128745096e+01 6.972585305653409193e+01 3.464949776057309094e+01
2.811533093420048957e+01 5.994976636954489635e+01 1.658551031377835017e+01
4.808470761452885256e+01 3.376562449040362424e+01 2.336664775290738660e+01
4.572012788020405338e+01 6.107221253160393104e+01 2.198203251670613056e+01
2.522784703514213689e+01 5.159936727942554313e+01 3.945149163961097827e+01
4.292020909048319766e+01 3.085257997155467180e+01 1.490679245660713192e+01
4.731677437068422165e+01 4.711208693066474495e+01 1.514763765216276070e+01
3.936036020175278338e+01 6.782078691818074390e+01 2.652391884366635111e+01
3.233052382403332814e+01 5.661224316258856248e+01 1.520675347592014326e+01
2.338394991144510016e+01 3.613161465534203387e+01 1.495223315820849486e+01
2.708931975381677759e+01 4.162969391435474620e+01 2.319933624231707014e+01
2.233681923776093114e+01 4.818973814741192996e+01 1.062272233728850424e+01
2.035051571301270812e+01 6.104082309260775219e+01 1.641484866202400639e+01
2.189394824364939751e+01 4.850116117403599247e+01 3.890956549570030631e+01
3.909909634104824505e+01 5.264139502407915217e+01 2.773012789077471396e+01
3.711070686450087663e+01 5.410169626227035167e+01 2.345946912004440676e+01
4.424332656561754362e+01 6.828468385822839082e+01 2.661441294758337506e+01
4.560375533821105876e+01 5.807013673702831369e+01 3.123226553029687835e+01
2.828711880320167182e+01 5.537839137225189035e+01 1.399360683733106292e+01
4.885408021236803222e+01 6.834645022509677403e+01 3.273537797213253953e+01
4.271980296021739321e+01 6.118240830281104081e+01 2.192906092629128878e+01
4.468563425975962389e+01 4.509069876870268700e+01 3.315891849878774877e+01
4.597832047120665777e+01 4.017873152103081935e+01 1.246549052923866441e+01
3.021256541911934335e+01 5.180682941229126470e+01 1.531341281211583372e+01
2.627337243135002964e+01 3.543063693600146991e+01 2.723589043648724228e+01
4.624638509646866424e+01 6.907736647229128835e+01 2.161987947248596953e+01
3.424639406933849273e+01 6.827646320688549508e+01 2.788981938893025969e+01
2.320600483973091954e+01 6.187485257673381511e+01 2.593532288134768748e+01
3.488729055642762944e+01 6.777613735515042492e+01 2.073596756809714492e+01
2.308961119151532415e+01 3.819952538986412094e+01 2.130947838402315142e+01
2.035149953825489177e+01 3.535829217128284796e+01 1.507967628588156117e+01
2.058374442257803238e+01 5.731013650537641979e+01 1.430651230372347271e+01
3.659318227995770201e+01 4.491423243068661719e+01 1.221119650109201515e+01
3.118218650523583335e+01 6.141190803852612845e+01 2.252625019447065569e+01
2.809617250250493470e+01 4.649132130859101864e+01 1.205120624134045038e+01
2.640807961760258848e+01 4.455620580191009594e+01 3.127938747760029514e+01
2.418680986942152344e+01 3.972156423985249063e+01 2.403514686580201598e+01
4.316403950885819540e+01 5.572007309190617264e+01 2.281076673653691245e+01
2.175811463814050128e+01 5.768004162729243234e+01 1.735533692344193213e+01
3.701473009643080303e+01 4.173402622785027205e+01 1.091146832930224342e+01
4.515501783001236902e+01 3.626419511917875127e+01 1.396686775999760322e+01
3.865106641653590458e+01 3.659881486986664356e+01 1.706296998215991323e+01
4.472231075273037959e+01 5.333718133840037723e+01 3.304371140902176762e+01
2.773636814550955876e+01 3.067627271708720471e+01 1.532877647119941145e+01
2.984516531992948885e+01 6.805743243197312609e+01 1.168240870891801286e+01
4.403902216733030173e+01 5.428048475798995298e+01 3.750691967811974337e+01
4.582856798190638870e+01 4.309833446534941004e+01 1.709415696444929011e+01
3.135378190487730876e+01 5.788266283917356247e+01 1.051982824514274739e+01
3.757130664655813490e+01 5.986238066126312418e+01 1.225009411729880426e+01
2.249719562580569843e+01 5.853454612760321396e+01 1.669527969134792045e+01
2.160993860636377661e+01 6.621416024978606174e+01 3.124585655937475082e+01
3.806119847716043125e+01 4.828148487399565170e+01 1.475375386604977912e+01
2.808386866483355604e+01 4.689134976626089468e+01 1.223068539617692174e+01
3.626825123049918176e+01 6.513386719288342874e+01 3.990034187876814542e+01
3.113824171260988294e+01 6.863767790307305461e+01 2.176797292613854751e+01
3.282775121250634953e+01 4.772779534849904337e+01 2.118138944787170175e+01
2.345824598795551807e+01 6.821255667473303674e+01 1.558588839330419162e+01
3.185661304656737158e+01 4.226054437709790079e+01 2.606266933075670522e+01
2.977212343386484861e+01 4.684947207009507508e+01 1.500500640820903087e+01
4.501915293579122590e+01 6.159929923798772222e+01 2.170474784242468758e+01
4.540055130432706676e+01 3.579410681836964159e+01 3.664449784037995528e+01
2.309528164881382395e+01 6.699827290359904453e+01 3.660706879862753027e+01
3.046774034444411683e+01 6.788659735292725372e+01 3.620818923705706283e+01
4.432995562711562343e+01 5.905308797353580985e+01 1.023178374055619955e+01
4.469813313999525661e+01 5.321830930972556217e+01 2.398659246675740775e+01
4.743625968418966465e+01 6.664712834318417833e+01 2.321223687318521200e+01
3.014111953609010897e+01 3.515110830331712322e+01 2.020839983435617171e+01
2.851763457200465623e+01 6.028241329192255193e+01 2.763261322956419619e+01
4.779445170717758629e+01 5.991039653277707799e+01 1.403793291220340933e+01
4.691743346400743064e+01 4.457132470573456118e+01 1.006572827828909844e+01
4.469537676045646180e+01 6.280556808316796946e+01 3.084470626860850118e+01
2.509416732246584303e+01 5.975199695582546155e+01 2.283598184807818043e+01
3.930078946249540905e+01 6.948929569956719376e+01 1.149120651391195480e+01
4.462771624486629918e+01 3.731485266065097761e+01 2.683919053648835629e+01
3.511123912643502365e+01 4.795099999203079477e+01 3.118476998401795797e+01
2.011419046790184950e+01 5.344952537907325762e+01 3.960474326641859477e+01
4.279835566335871277e+01 3.374255231828628609e+01 1.382261440754612991e+01
3.808341576367774906e+01 5.163328110226503753e+01 3.584214453967080516e+01
4.659831520625827750e+01 5.989402934420586888e+01 2.351038837854762065e+01
3.134707987649900574e+01 4.684177059265850573e+01 1.292165065327319695e+01
4.344317257678327593e+01 6.130704068200908097e+01 1.132512982016667991e+01
2.339123472162187767e+01 3.907872207023457634e+01 1.226432688632316292e+01
4.362619164943719596e+01 5.256488442118536852e+01 2.079404109598933559e+01
3.801320079560438359e+01 6.188302549713221623e+01 3.380956981752720480e+01
2.850464580705691731e+01 5.867501218683809583e+01 2.862032223896417804e+01
3.199016852221151552e+01 5.217350857926745533e+01 3.696698059025466421e+01
3.843025419404788323e+01 6.710545014941619968e+01 2.021025067679045151e+01
4.342704802294047539e+01 6.183203170563144369e+01 1.780269657164755870e+01
2.559930635835418045e+01 5.530811821051965183e+01 3.889467997060596360e+01
3.382485438272442480e+01 5.018170929482782583e+01 2.641954475184945395e+01
2.397089561575537076e+01 6.647670989003580644e+01 2.013428604017961732e+01
3.181887928364600526e+01 5.407591558642430840e+01 3.899177643529575477e+01
3.993282056745351127e+01 5.136806570580208842e+01 3.122901295129521060e+01
4.693362856341464351e+01 6.516725557320680196e+01 3.539689418978216651e+01
3.487042300623976843e+01 3.086509772319515577e+01 3.370685926284323841e+01
3.833192414905908407e+01 4.355785558190430606e+01 3.599251671742837999e+01
4.980806429001982849e+01 4.971745472731452509e+01 3.493919189213562504e+01
3.016990844155952445e+01 3.516758612746413348e+01 1.462850465301754888e+01
3.042321069536045997e+01 3.339337223496370655e+01 2.648846910154606249e+01
2.351406221494566395e+01 6.170805246010289125e+01 3.795445725870204257e+01
3.100786866582205903e+01 3.837453383622646186e+01 2.995002008649729675e+01
3.323085816074321741e+01 3.713731606383802131e+01 2.670454207145747105e+01
3.155411187719739985e+01 6.854275173536505861e+01 1.330344463190058590e+01
3.407843219788956191e+01 5.808589633427746435e+01 3.595791348273428412e+01
4.065404377303192263e+01 5.339611764816096695e+01 2.522640096236704466e+01
2.809018335405583144e+01 4.806276495771014368e+01 3.295527464437102338e+01
2.287989612616691915e+01 6.035019631542504470e+01 3.607920329641834201e+01
3.110134683440248793e+01 3.958868279817598079e+01 3.608921336952713688e+01
3.739805038294296935e+01 4.585630293053804962e+01 3.041594186001017519e+01
2.114133329110979886e+01 6.166443125470233610e+01 1.886388959901310614e+01
3.473158962668111371e+01 5.639135869264387679e+01 3.847942539199191714e+01
3.246442559759014301e+01 4.030537147719203261e+01 2.186675978756211691e+01
4.341239625760986343e+01 6.217297518406837042e+01 2.301926208705486943e+01
2.000372318792377158e+01 3.339193906077221641e+01 1.805441681832936496e+01
4.071765847694130969e+01 5.695778582907663434e+01 2.142397394114453490e+01
2.010414099306628799e+01 6.388341417233019115e+01 1.643972478411890137e+01
3.132814126219236783e+01 5.349682677186687840e+01 1.840878171101200067e+01
3.996346262677356265e+01 5.063016419591812678e+01 3.468930349817249947e+01
4.068995806157024475e+01 4.492769960153453468e+01 1.925979590775784800e+01
3.751109922545283837e+01 5.572861551923399048e+01 3.977097856838628331e+01
3.279297659126181230e+01 5.760825967573436657e+01 3.459706453429019035e+01
3.931492353082602165e+01 5.669384619743213705e+01 3.143298187628465001e+01
2.516314595013318112e+01 6.224731754387084237e+01 1.717869950745701857e+01
4.474826919404252124e+01 3.329049607458088644e+01 1.889048493234369985e+01
2.379081717092292791e+01 4.335240868655836266e+01 1.231899626631892630e+01
2.962133999550066221e+01 4.230989559001328359e+01 2.115085806917559452e+01
2.805904346762673285e+01 3.297261520157165648e+01 3.526016594741252419e+01
3.706251680899813294e+01 5.692225573485642087e+01 1.642893298042760364e+01
4.553520160059224509e+01 5.178330618784791284e+01 1.668380942881159257e+01
3.233687754155749872e+01 4.089442020357787300e+01 1.253672938920222890e+01
3.010775761444530829e+01 3.707444459688872485e+01 3.638442453988831460e+01
3.853545187021207852e+01 6.509514381574832953e+01 1.983619778232729303e+01
3.323295414152196514e+01 6.129415390266444064e+01 2.928247609699802112e+01
3.725933196961056382e+01 3.847422265200578551e+01 2.677521040271722086e+01
2.463274183338749523e+01 3.269179160675136586e+01 2.409820151236370478e+01
4.581389956454141554e+01 6.614526723903146888e+01 2.923284404100119360e+01
4.168532727665619575e+01 3.738515359173025843e+01 3.545598190177917530e+01
4.135819947939501873e+01 5.639808685875291872e+01 1.142606981594339643e+01
3.905539516765953323e+01 5.803477582886196018e+01 3.582416145323853129e+01
4.870163098801781132e+01 4.075146649158271828e+01 3.211409405471739120e+01
3.969090594328752530e+01 3.666458220595176698e+01 2.369098727686684924e+01
2.932562149072486335e+01 4.541710393296881421e+01 2.911815798771236885e+01
4.457255917543282209e+01 3.134590839006938978e+01 1.338148956468753248e+01
4.579218403746664023e+01 4.833561550212059643e+01 2.432921151002141968e+01
4.249506985611686360e+01 3.628870099501811808e+01 2.315148013272015959e+01
4.785272977897429314e+01 3.417449067743221036e+01 1.701119518345864989e+01
2.041677817344835688e+01 5.035276442693877641e+01 2.660158894000593932e+01
4.548316033487385113e+01 6.918885558155265869e+01 2.320961019537454106e+01
4.617268309151953076e+01 5.217702754202131388e+01 1.897412327883576211e+01
4.553708671626810656e+01 4.119209197439010950e+01 1.461301993225447760e+01
3.700737166006929613e+01 4.500069435303445431e+01 3.179793896552653010e+01
4.965722381244932393e+01 4.097409818339537679e+01 3.748214467816264062e+01
3.896498480589583835e+01 4.716381021672544449e+01 2.835612201829891177e+01
2.099685394791361759e+01 4.852293731251236153e+01 1.240969126542587020e+01
3.284479433585563157e+01 3.083293752408350485e+01 2.986743721898094250e+01
2.993816021389450555e+01 4.918302321994596582e+01 1.879398760267059032e+01
3.617960919632739092e+01 6.831855812375458470e+01 3.995759290126057550e+01
2.975843908583433262e+01 3.132604638112419337e+01 3.838105169635531411e+01
3.475876133895149422e+01 6.068584689406021226e+01 2.955825300192099903e+01
2.641011739578910067e+01 5.570974588284363449e+01 3.451311479006662353e+01
3.448587127711243738e+01 5.985476420537506925e+01 1.908093607822096516e+01
2.994734510234159330e+01 3.969469487860647661e+01 1.804653549876735852e+01
2.843944286412562050e+01 3.488657379836229921e+01 2.659564597615511161e+01
2.445122339139302881e+01 4.198309326778421990e+01 3.936667052459162619e+01
4.985664035457355681e+01 4.122524167621723734e+01 3.138027939134252620e+01
2.714859299306664298e+01 5.761606128017579209e+01 1.134285685467586546e+01
3.718653902299045200e+01 3.672548208340451481e+01 2.479665796415528689e+01
3.516307581492134915e+01 5.142829769037962251e+01 1.153073998314442150e+01
3.454154876970703469e+01 6.031368109358646734e+01 3.588369344858907084e+01
2.530895316339347545e+01 6.903644052268724352e+01 1.203291215364762401e+01
3.681939643121269512e+01 6.854978672572113396e+01 3.397042937464625822e+01
2.024268130656530218e+01 6.638168241939149539e+01 2.491643562701689874e+01
4.696359370795511268e+01 5.037882806699085592e+01 1.215976270356331490e+01
4.824119409721073737e+01 3.753900258920527477e+01 1.620662489084281432e+01
4.114967512244002990e+01 3.747877590077670362e+01 3.116700643164158535e+01
4.521903193510432573e+01 6.226922352163136765e+01 1.051617056219081903e+01
3.438329992672356639e+01 4.731227418658288997e+01 2.527588947565704203e+01
3.313262141320510068e+01 5.058138582521357307e+01 3.364957247239613736e+01
2.692071562946779650e+01 5.786296238515341628e+01 3.896623537235880264e+01
3.946248905408121743e+01 3.248844113050866156e+01 1.666063461778257704e+01
3.744783390617762109e+01 6.587623992081796587e+01 2.737160596026544468e+01
4.914776349938760092e+01 5.857484144003540649e+01 2.763211909205590544e+01
2.271154889430625445e+01 4.681624236153980689e+01 2.673105672064470895e+01
2.933498662761709852e+01 6.363394490485316624e+01 2.768204748552401995e+01
3.358429869079979824e+01 3.849085243289531633e+01 3.391962519199513793e+01
3.486314291435109425e+01 4.689016174316994778e+01 3.016579591366862445e+01
3.447594822427858219e+01 3.012617899601593052e+01 2.090699017551466099e+01
4.121035085724096092e+01 3.392113120034716189e+01 3.761298775059571398e+01
3.505645266019371320e+01 6.319692410144222094e+01 1.736197543770856555e+01
3.740782322157934203e+01 3.758487564173606188e+01 1.324829733523057484e+01
4.043415886606274512e+01 6.870743120737373033e+01 1.679211783721339302e+01
4.211430228054793190e+01 6.247825667227900936e+01 2.167663969086964926e+01
4.364806453256356633e+01 3.451455235518216824e+01 3.743316821285066709e+01
3.571377429185995567e+01 3.304111620693583973e+01 2.490152333166313525e+01
3.226221553773489603e+01 4.968711719946583827e+01 1.495636161347468907e+01
4.409934488525271945e+01 3.459710689257844507e+01 1.470198722674674841e+01
2.915577319547835344e+01 3.300449428987776912e+01 3.954792720065749734e+01
4.995548654424079871e+01 3.796032995379350439e+01 2.625069788964677997e+01
2.517083390100694018e+01 5.711220536309227214e+01 1.176378041861053703e+01
3.686077515163685092e+01 6.599740322941833881e+01 1.985107920078385035e+01
2.264211469770569352e+01 3.539277693935682834e+01 2.371393745721379531e+01
3.923441495534946455e+01 4.887516958157078761e+01 2.542448737639551126e+01
2.390766129443811039e+01 3.664217046346429640e+01 3.558663719219447330e+01
4.347929724034634091e+01 6.195178328653939559e+01 2.051711804266372852e+01
2.333490977376305864e+01 3.034494919524246370e+01 1.346073966801984945e+01
2.578635585024911947e+01 6.427475143052042483e+01 1.194777608785616607e+01
3.511312207303676303e+01 6.729628563064011360e+01 2.809097597296720394e+01
3.847511007996965304e+01 3.839946433313004093e+01 1.382449461442023519e+01
3.497448280803519083e+01 3.012353480816966211e+01 3.785131677733563293e+01
4.293960296316476644e+01 3.305465254962503252e+01 1.890161018516669600e+01
3.916347790251640504e+01 3.185801775241085920e+01 3.497459157980124900e+01
4.982525033365399025e+01 5.469696813088180676e+01 2.923049972829191390e+01
3.548516431301810314e+01 3.407057124135810255e+01 2.053945352072926767e+01
4.165186463351680146e+01 3.030693944270917939e+01 1.022256109979257133e+01
3.778141419896857656e+01 6.656550990884495889e+01 2.552088127930999306e+01
3.794450523979626411e+01 5.701516140987730097e+01 2.250465730815823662e+01
3.135098563707769870e+01 5.021799022359495268e+01 1.523470316470110220e+01
3.086019024975787772e+01 3.338610548613648632e+01 3.147528663409049443e+01
3.012920222850157259e+01 5.138060243730735266e+01 2.054529535436018151e+01
4.530174173076564159e+01 6.488108825196738394e+01 1.074571447070785624e+01
4.856848746266321371e+01 4.936371130195252022e+01 2.275529857032239178e+01
4.777197192815702920e+01 4.329484655536576554e+01 2.935638850249720022e+01
4.455916421787608073e+01 6.330672593995969777e+01 2.118228049072576979e+01
2.534528895205713184e+01 4.956997584704839710e+01 1.006320594827434434e+01
3.153376588001496472e+01 5.996094634544940760e+01 3.783385613909475609e+01
2.109195403851585837e+01 3.150237298509087580e+01 2.597208385379291684e+01
4.404288134314106173e+01 5.670596057792798206e+01 2.673987890771373088e+01
2.216869024131413823e+01 6.158619449747367725e+01 3.252875571219652073e+01
2.660906851741599155e+01 3.483401761318455669e+01 2.398927160449996165e+01
4.910590101808859487e+01 6.110845803264486165e+01 1.092172104695653445e+01
3.887141664361868720e+01 5.068961469611442539e+01 2.190195875333400721e+01
3.946318347572308483e+01 3.435685400281865753e+01 3.812009659124097993e+01
4.382644148920180527e+01 3.927016713422501226e+01 1.071972538427223753e+01
3.465524523433119697e+01 5.408276064278072681e+01 3.611278335736667344e+01
3.328539248423265917e+01 6.572162895707666053e+01 3.656383069938428321e+01
4.066633789615031702e+01 5.333965330471394140e+01 1.377839694179815488e+01
3.578787885572369021e+01 5.540223547128003645e+01 2.424497084779035916e+01
4.852346134130286259e+01 5.027524468391156631e+01 3.421331224526187498e+01
2.879281363774936864e+01 5.586387471953446493e+01 2.062921720525606872e+01
3.484256602746810216e+01 4.508774144639570380e+01 2.505603458395690808e+01
4.266406808038018994e+01 6.320563307599884695e+01 3.478427856621284775e+01
3.541663467551082789e+01 3.524385271401848740e+01 3.216589680561123998e+01
2.996397701085031784e+01 5.719763553736233774e+01 2.926644085919134497e+01
3.892550474231500601e+01 5.997905365205902228e+01 2.976251067067706657e+01
2.373981154928594961e+01 4.312232262181645837e+01 1.127732337838322962e+01
3.664399143426268068e+01 3.962368450501719508e+01 3.255496454609985335e+01
2.518715414262109320e+01 4.236703111764609275e+01 1.010588681392095012e+01
3.780012212713980091e+01 5.167589497395336195e+01 1.780178521917190437e+01
2.484821079831996826e+01 5.055919379440076966e+01 1.483631121040689393e+01
3.826502280297138014e+01 3.799030289091930257e+01 1.953743202398022660e+01
2.867460734464141225e+01 6.540922017203376981e+01 1.414644365779695789e+01
2.545243390027777153e+01 6.265020184039114071e+01 2.035410173461068695e+01
3.513244147917865234e+01 4.155068883025943194e+01 2.314462618310644260e+01
3.507052489831728792e+01 4.953341212590235187e+01 2.527535848452059497e+01
3.277796406705463284e+01 6.848432890456814448e+01 1.919599454861564780e+01
4.624309321836621223e+01 5.307085486804096064e+01 2.576548761183645553e+01
3.115641548255511140e+01 5.293104453089196682e+01 2.091613472516412742e+01
3.592320436535560191e+01 3.165575748829668612e+01 1.634082903315580282e+01
2.321624761558494043e+01 4.916247263256087052e+01 1.780819504143080678e+01
3.763020077188792101e+01 4.555440242514159621e+01 2.091845926839124203e+01
2.476702078575595678e+01 5.714214038929902273e+01 2.495778583286685404e+01
2.867488362608615660e+01 4.441804630821909683e+01 2.597573055659641028e+01
3.410652598907728361e+01 3.002377242065921337e+01 1.260171539173131627e+01
2.022332640296422568e+01 5.272580214615613414e+01 3.320975407291408743e+01
2.148021943974157821e+01 5.242430693416743992e+01 2.424326229637267005e+01
2.141123654668705001e+01 3.199972222349490991e+01 1.899129296660095889e+01
3.142751181325583687e+01 5.617384116180066655e+01 1.334367888910152899e+01
4.803952579148811708e+01 6.912233651227553821e+01 1.467718357604460522e+01
3.191508357347199265e+01 4.854496927301897813e+01 1.102320101697410415e+01
4.226559601299511115e+01 5.606933000042253212e+01 3.176501997474668926e+01
4.942423225379384633e+01 6.168821621079734996e+01 2.904300941580626372e+01
3.151730342679886121e+01 5.928301273770688340e+01 2.371419026209995451e+01
4.217880568237460182e+01 4.939517133983329700e+01 2.439536415439511785e+01
3.515116709934110872e+01 3.398885705192786588e+01 3.535991999734464741e+01
3.495368898906894373e+01 3.781412280174637175e+01 2.051209945513271649e+01
2.252992689025583672e+01 3.004186273174940425e+01 1.993569024715603533e+01
4.639874262233158930e+01 3.950290605504488184e+01 3.495043692235309152e+01
3.834368463029961305e+01 6.654888408162597102e+01 3.863292028782918663e+01
3.792022576324834660e+01 4.462891987550337092e+01 1.806618897739839014e+01
3.583598116979116810e+01 6.962310499735079361e+01 2.566433801946470439e+01
2.110482379341100767e+01 6.020157795722007421e+01 3.117189549718084507e+01
2.606573360511962179e+01 5.323511685283812511e+01 3.403675104598066525e+01
4.545897770534749327e+01 3.518973399785348732e+01 3.267117393977052586e+01
4.850515452471623234e+01 3.445165060762800380e+01 2.890266225873920902e+01
3.101695206977296237e+01 6.980782927128464621e+01 2.958452216944936808e+01
2.492057197062572627e+01 6.532197448584000199e+01 2.985847466084011614e+01
4.926283201400701017e+01 3.065945929915318047e+01 3.932136210198563475e+01
2.793289201854259929e+01 3.357931575838660621e+01 2.253493757077614745e+01
4.519231480290572023e+01 4.294821729811159372e+01 3.547199196046195624e+01
2.941403955750108068e+01 3.325989883297901883e+01 2.751604473460576017e+01
4.857253398750698636e+01 3.211256740947685273e+01 2.890110865594042266e+01
3.046869636589160280e+01 4.412418314822733834e+01 3.479917358002151673e+01
2.925998170020868017e+01 6.063323307223515002e+01 1.432738700321301017e+01
3.855419660321724962e+01 6.450485095115637080e+01 3.233220201912644143e+01
2.206978053069604684e+01 4.735430943593789266e+01 2.579561412786321029e+01
2.771641356265571687e+01 3.034140060211022316e+01 3.675513045534815859e+01
3.164772287167040332e+01 5.129928499882790760e+01 3.583946410987971376e+01
2.745257853549541949e+01 3.988235360606793023e+01 3.459597647289574240e+01
2.144607979693365962e+01 4.676935728543739401e+01 3.564979593607446873e+01
3.531739196143725223e+01 3.622755782619194775e+01 1.181036451214607652e+01
2.634710280908381108e+01 5.803753866880900603e+01 1.656309269759353953e+01
2.282611440972368655e+01 4.552677339639228649e+01 1.502106776009863864e+01
2.920594626236672298e+01 6.328895305429644935e+01 1.616415984742969414e+01
3.028217196383573651e+01 6.333780880047131490e+01 3.489035532397253547e+01
2.801764989218539270e+01 5.384745901702082449e+01 3.500995849220148415e+01
3.742115480717790632e+01 4.964115284131786154e+01 3.717180368635956000e+01
3.473018405053836943e+01 6.809362793016723003e+01 1.499365436846273880e+01
3.212879566691631084e+01 6.890125136195239008e+01 2.114508550730983671e+01
3.984493097955213869e+01 3.613680775967112169e+01 3.780664479767790453e+01
2.908736914289785602e+01 6.478439958411156852e+01 2.732588068409584992e+01
4.399840365273842480e+01 5.141839474525582432e+01 1.211493995721434302e+01
3.001564215650397571e+01 4.447938026116763410e+01 1.183413441874268202e+01
2.665207885607811988e+01 5.493214732930820077e+01 3.326133449564589029e+01
3.431740495013498560e+01 3.792184972977915436e+01 2.909538188414601123e+01
3.075306778282003251e+01 3.635676261817341981e+01 1.107683147855584949e+01
3.859311937608277532e+01 6.617333687605785997e+01 3.626341384316521754e+01
3.834969619158427889e+01 3.525296275283211855e+01 3.270010328165455604e+01
3.816555665990424018e+01 6.069698394654488993e+01 3.159153973762334289e+01
3.883641754776151345e+01 6.739025199701595170e+01 3.344626841395823647e+01
3.083917441283757910e+01 3.745996664876450666e+01 2.577942407384783507e+01
4.706858296235176908e+01 5.711814710504145154e+01 1.574485064226671582e+01
3.366740269077400427e+01 6.787157759810290258e+01 3.669101205453703329e+01
4.319849741721795056e+01 3.139819924983480348e+01 1.249285444022967262e+01
4.966322239308730246e+01 5.172013524010495900e+01 3.316454157237561873e+01
4.165037811485841956e+01 4.717290264520791254e+01 1.323424759050540978e+01
4.251923643942349429e+01 5.842234999152196906e+01 3.034640981113764369e+01
3.189011419052061314e+01 6.601874398041043435e+01 2.963967884406775255e+01
2.447707390960375307e+01 6.118667619183971595e+01 3.717380211173995974e+01
3.993074733530676923e+01 3.701528749848183253e+01 3.006960527640779546e+01
2.477961933033479980e+01 3.436516373089730791e+01 2.225277979625002089e+01
3.634923743414721997e+01 6.151285962686699804e+01 1.529379061616118562e+01
2.851549102303798833e+01 5.344683702263118619e+01 3.867920533303203001e+01
3.922322146087954309e+01 5.162056058542660253e+01 3.338523385999413762e+01
4.269700413892181246e+01 5.494604701308533379e+01 1.465754911501757718e+01
2.807059808620772046e+01 3.874073841216883807e+01 3.996604741815775697e+01
2.173530405581118785e+01 4.084916953761334923e+01 2.388219916684658628e+01
2.681612951907812459e+01 3.996799985080043172e+01 2.306799941790900021e+01
4.337668108941277012e+01 6.007638966913807366e+01 1.679399328868803565e+01
2.603490531904733984e+01 4.791844235177558886e+01 2.200489101074840548e+01
4.298004132024617263e+01 6.285611140315071310e+01 2.856304079090608994e+01
4.517589209624467372e+01 6.049674536049462148e+01 1.308310959553724473e+01
4.966531235173593473e+01 5.318123649651097651e+01 3.310920839032426244e+01
4.693808243197632635e+01 4.606418148436013382e+01 3.829185472388944333e+01
3.016028544230287167e+01 5.422203358059894640e+01 2.052301150257317275e+01
