4.424813302536849591e+01 5.481053887137517222e+01 9.695429057486231272e+01
5.400351385419952521e+01 5.059741229053642542e+01 1.392492061876652265e+01
6.299451133958024229e+01 4.660837956451364761e+01 8.526972837586433229e+01
6.344913298968529602e+01 4.540443713400777881e+01 9.411185840528133895e+01
3.749068027336829090e+01 4.226543016531535102e+01 7.746246440935811961e+01
4.848050871063605172e+01 5.920932420646105498e+01 9.176210879473971715e+01
4.097459796491064310e+01 3.820894623306288196e+01 3.541807614959935080e+01
4.507506493825053440e+01 3.889614978395451317e+01 1.718984644555398944e+01
5.866983355497905706e+01 5.304551682942383195e+01 2.662465609365953867e+01
4.679140091326097206e+01 4.203933348246068391e+01 8.276363186821473050e+01
5.939846163457718120e+01 5.661654084406243470e+01 7.989913487935508840e+01
5.401156405924637482e+01 4.181810195106939432e+01 5.567579252945618862e+01
5.181687576852239374e+01 4.700059584710671601e+01 9.008463138741802823e+01
5.490696873210021067e+01 4.199515044392414609e+01 4.001154257456580865e+01
5.221310674276094943e+01 4.644427778711129662e+01 8.610772353606603247e+01
4.954644240037764291e+01 5.555347113782498525e+01 7.247629169460543608e+01
5.960297944889747157e+01 4.816355793463319657e+01 2.871433692952007988e+01
5.508870927811030072e+01 3.663724317877999681e+01 9.574646864588029871e+01
4.825045800094856929e+01 5.842018322191664481e+01 9.088556029698463590e+01
3.983178996825154883e+01 5.264656748685213472e+01 8.401407912683712453e+00
4.925946502529018289e+01 4.693681809489525136e+01 6.771262649371738007e+01
5.776732219112143696e+01 4.549779697054503202e+01 8.951755464924747230e+01
3.868265946030567193e+01 5.266081606000508941e+01 3.549090091261481206e+01
4.329692735548552918e+01 5.230789875894453900e+01 7.869219565626674751e+01
5.241640597951369074e+01 3.948138349416001347e+01 8.262962163514986003e+01
5.431292951712587325e+01 4.839253835724730379e+01 5.844580833410100951e+01
6.282484597958028871e+01 5.737366141312343615e+01 5.224140802717680998e+00
4.813367718390226457e+01 4.078119712033124955e+01 4.381889481424698118e+01
4.548180479939155418e+01 6.425073737614316371e+01 3.830728806519869778e+01
5.981850674740721985e+01 4.975542137596241332e+01 2.886876667486374259e+01
5.357956234765082115e+01 5.135409403693904551e+01 1.039739088146837176e+01
4.848214305719095307e+01 4.716785210899607961e+01 9.975955234036622699e+01
5.316729302530855961e+01 5.572517194074450941e+01 3.998185007624238807e+01
3.540403905102142090e+01 5.109282646471054079e+01 1.839764775123014928e+01
5.767964535015167371e+01 5.069078541605204435e+01 2.741458858507472840e+00
5.081827844607533962e+01 4.247812886721111880e+01 6.411908014261450717e+01
4.477805547839329847e+01 5.969273034141144052e+01 3.771126130352914174e+01
4.451392460133253337e+01 5.070279974891845853e+01 8.679982970048230584e+01
4.735742209878915077e+01 6.035908109776801922e+01 1.363270532339071472e+01
5.571760173094404678e+01 4.876133314149134890e+01 2.174167034001180809e+01
4.718213774824858575e+01 5.709424034400112191e+01 1.548834131835179484e+01
4.389635874801737003e+01 4.627518091249874033e+01 8.073788374965207026e+01
6.172883723704769920e+01 4.369851192123319805e+01 1.253945104877790584e+01
5.616097323450812695e+01 5.327337936176187583e+01 9.880098353685546897e+01
6.421856479128830131e+01 5.334895088741390623e+01 8.163794515254232920e+01
5.771552437876415809e+01 4.285449899404952845e+01 8.602512099033509685e+01
3.927236311927573098e+01 4.715499829759382067e+01 7.037554605449382450e+01
5.249941308045114141e+01 5.691589339871859465e+01 3.078188168836802774e+01
4.570351871357421203e+01 4.203856842985660336e+01 9.317723772696137985e+01
5.398385029258193413e+01 3.762309852223935991e+01 1.686079272989322675e+01
5.636176916634019562e+01 5.198297976798058784e+01 8.004777580403985837e+01
5.941068280690314651e+01 5.389580966283298125e+01 4.272568841226546255e+01
4.309971078374399411e+01 6.111731845229950721e+01 1.522188170409617314e+01
5.147659987496435718e+01 4.182230683601102328e+01 4.968006104593181149e+00
5.080378305012555273e+01 4.165046308156890120e+01 2.304820915091734435e+01
4.965022345710517016e+01 3.977638677995975769e+01 9.175809847616935144e+01
3.665696239880774954e+01 4.803579580211113864e+01 3.652566637468197541e+01
6.136195101294671161e+01 4.234274677656802766e+01 6.663971712715334661e+01
5.656825367024684681e+01 4.612091996303281149e+01 5.779982408480410783e+00
4.319268794378695731e+01 3.811015211759160337e+01 4.711009261638024270e+01
5.037335058245481179e+01 4.021933699305692045e+01 4.033557122373466086e+00
3.763860505555437186e+01 5.796472657165047337e+01 3.896289079354149010e+01
5.886723125216150976e+01 6.109068592759505378e+01 6.386398083790128766e+01
5.419535886309819972e+01 6.204712980976566428e+01 8.243520442108620117e+00
4.433446773490386050e+01 5.962768252283742498e+01 9.047074586159747867e+01
4.837539878710027352e+01 5.132366187270784508e+01 6.649049436098512444e+01
6.277422047690605922e+01 5.466146880771071181e+01 9.909803117222935498e+01
4.609617869981124016e+01 3.759819944592553753e+01 9.178462865946609384e+01
4.286470645039048577e+01 5.579458130524236026e+01 5.655018684545948560e+01
5.013234559004444435e+01 5.581196319568837794e+01 2.333981433396325045e+01
5.343770220143001382e+01 6.404955923046370003e+01 2.461578217350607289e+01
4.007297580275239568e+01 5.715637373318246262e+01 6.125507279474480526e+01
4.428530210643901910e+01 5.788768937915897084e+01 3.639926779308918725e+01
3.608569487935644560e+01 5.145585798076631789e+01 7.612629536278470610e+00
3.910182432589842705e+01 4.938501783473031281e+01 2.073638014580843247e+01
3.859893820520461105e+01 4.421291795719961470e+01 6.437036301686859474e+01
5.262936054341753334e+01 6.034005122481115535e+01 1.656527784954039362e+01
4.611651747067958240e+01 5.926063301225003244e+01 2.361133015341737718e+01
4.223948078645832993e+01 5.846677156252948748e+01 9.211037370804591262e+01
5.344952596223742347e+01 5.736940654656429217e+01 1.284606992946336668e+01
4.309980489194118292e+01 3.733737954145978222e+01 6.081375558703990691e+01
5.268907584570438019e+01 5.723062082412481288e+01 5.951028540287839519e+01
3.785021401991767220e+01 4.791319939944970230e+01 8.290706924773174080e+01
5.592301363038143336e+01 5.929830920941328287e+01 1.046722998554051642e+01
4.580643101512087156e+01 3.569138152909733464e+01 2.411029333661015528e+01
5.384556361560601800e+01 5.634409098487110157e+01 4.721862832395853360e+01
5.854269901120908770e+01 4.661525500825355550e+01 8.407918722959239233e+01
4.679677704379092518e+01 6.056132054702722201e+01 2.322257423509433849e+01
4.579228869423135251e+01 6.294117546232356375e+01 1.374822479254541641e+01
5.833777106619050556e+01 5.547592457330576821e+01 2.669211763163473705e+01
5.732687832608694833e+01 6.099336628613579592e+01 6.724152410357112331e+01
4.688233688240111974e+01 4.472324079717500922e+01 9.854790829461286705e+01
4.284747999533160367e+01 4.672909474299684973e+01 4.705479233757480273e+01
5.231106613424078944e+01 5.192987051555559930e+01 7.073369269538615356e+01
5.048929656764600082e+01 6.256138090727942824e+01 8.225893249164788301e+01
6.201976975637918343e+01 5.279895569338322048e+01 9.551325034416966275e+01
6.231600077910478319e+01 5.513453736323632626e+01 6.914348292134665996e+01
3.965511970532161001e+01 5.534061854156880145e+01 4.578535778108017595e+00
5.287814413801681468e+01 5.915012371964962767e+01 3.766153611327835904e+01
5.534026265221098129e+01 4.089473747914897928e+01 5.580470215170139880e+01
5.778291323933309087e+01 4.918614795505431658e+01 8.889912417713040327e+01
4.293002038123576369e+01 4.222486245958631201e+01 1.713328459519998148e+01
5.378769156573657284e+01 4.954995868299588579e+01 7.141042118514640435e+01
5.714132838651791957e+01 6.086810856281614690e+01 8.935049368103771883e+01
5.605000103372689324e+01 5.951036130017271830e+01 9.624226581026172767e+01
4.651495546823364435e+01 5.514853927447285287e+01 3.455904538808727011e+01
5.021214830477074287e+01 3.552133233565803749e+01 9.828766697790027251e+01
5.619427467043072255e+01 5.896433483866452008e+01 9.813724821952634159e+01
4.529147835088699026e+01 4.907779002161295523e+01 5.081018184958563388e+00
4.676091372084739817e+01 4.770252444118112578e+01 6.632295197617628446e+01
4.737149016431087034e+01 4.615244990149924575e+01 4.095203105467199833e+01
4.937256725243202027e+01 5.656769635130377338e+01 7.379532383354491287e+01
4.690933999991925418e+01 5.797690567229458480e+01 1.760770308074831547e+01
5.854317171138445985e+01 4.222322634244953576e+01 8.506455983973057755e+01
4.200787076601518777e+01 4.673728919660692327e+01 4.001310605295477529e+01
6.283325406462685692e+01 4.687181362082621661e+01 3.082103878086760318e+01
5.210496320107414903e+01 4.096915806604469878e+01 7.876767829238228558e+01
4.593641374801322996e+01 5.019350998633365180e+01 9.354902961188027888e+00
6.391580380264259986e+01 5.186710233385738178e+01 3.223027598381322889e+01
3.616394071427662027e+01 4.464669653762337731e+01 3.040395845533122454e+01
5.778413626274085146e+01 5.674491302255839287e+01 9.700240648339935490e+01
4.434399843727732105e+01 4.194786048201238060e+01 5.551853572916704849e+01
4.499953009344472576e+01 3.672302255529664450e+01 1.592238041144369376e+01
4.838120803955872873e+01 5.083248313105379879e+01 4.055244917720409603e+01
3.759814809332689833e+01 4.190044114706531531e+01 8.433633547971393796e+01
5.370039523555568906e+01 3.917467491533531643e+01 7.402839140587229849e+01
4.440610939997255713e+01 4.577629328754547799e+01 8.851944749126874967e+01
3.641271115389651669e+01 5.066515513350100264e+01 3.405207865509070331e+01
5.254998860814129813e+01 6.106202810190717400e+01 6.702684159895086680e+01
6.416825207696020072e+01 4.785284972986361396e+01 9.431292572667737772e+01
4.798409284363137317e+01 5.030840562722271869e+01 8.680439364459560636e+01
4.577003806781823414e+01 5.567226480869391736e+01 6.021053512034290733e+00
6.227149272017727100e+01 5.762096945889678778e+01 7.460087591375312854e+01
4.366276342246953135e+01 5.701371936884297753e+01 5.855113523923031238e+01
4.907565132527642504e+01 4.569573970923032391e+01 3.918974625868160189e+01
4.954719830774141087e+01 5.456299164940829627e+01 9.708606150536125767e+01
4.979622690884627190e+01 5.085304040737786835e+01 4.201251968387737179e+01
4.959798943498480384e+01 3.555134951318720482e+01 3.478159798717170048e+01
5.004794911204420771e+01 4.057513269770240072e+01 6.580333668942839154e+01
3.933075977987898852e+01 5.143927220156280100e+01 6.283124360899346073e+01
5.675653547177640235e+01 4.976430273391436998e+01 7.702259242912349180e+01
5.028165405380957509e+01 5.873191967333297470e+01 1.294825127151697508e+01
5.657881652594578270e+01 5.589333650315920465e+01 6.319133480678328141e+01
4.340144032776326100e+01 5.688199695789504062e+01 1.081613423578025035e+01
5.510944787326918970e+01 6.264094351874189925e+01 6.319956790826651627e+01
4.266667046252013051e+01 3.907972408727221847e+01 7.394296827752508250e+01
3.685275664361930126e+01 5.632691041098056672e+01 7.177570486352752255e+01
6.052434942888422853e+01 4.087000594736957026e+01 2.432372002493794483e+01
4.420895486994608348e+01 5.125285952615460161e+01 1.575230854978706319e+01
4.273208377885009668e+01 5.752390346485822903e+01 1.165733848696703845e+01
4.074194943523241363e+01 4.538285706583049262e+01 7.002848506703918474e+01
4.173946189472707857e+01 4.808205522050664626e+01 3.945271680799097425e+01
5.044504830228446934e+01 3.675595540123007510e+01 3.445030579023652706e+01
4.877596313625301860e+01 4.087455035096443368e+01 5.477563212008475801e+01
6.321884231975521118e+01 5.664402457100364785e+01 3.215106374164889758e+01
5.150561502601793507e+01 3.640077765446088165e+01 6.679199991888823718e+01
5.628958346982446415e+01 5.365693437232491902e+01 2.051795373974021430e+01
5.114754292963166193e+01 3.843516645651021690e+01 4.520879566452182985e+01
4.769783110611196264e+01 5.311026707107718892e+01 4.930522648682858744e+01
4.287036717192987823e+01 4.242849353220620401e+01 6.294887187813738905e+01
5.914291072453360698e+01 6.167622970494753787e+01 4.617271876188181778e+01
5.652400835899015163e+01 4.199911165685998782e+01 1.580704352047462891e+01
5.702440581193922498e+01 3.686002519856337045e+01 7.735157727987768794e+01
5.652557732117059430e+01 5.285948122976302699e+01 1.121770511111360769e+01
4.454319650688795207e+01 3.643746761194016415e+01 5.340725639209448161e+01
3.956471473019641394e+01 5.173878564725933416e+01 9.523245990532058158e+01
4.608802722763871884e+01 3.757994810378736616e+01 3.910757707729943888e+01
3.723812973582694497e+01 4.453995562799696017e+01 9.463303189768046764e+01
5.561259415175096876e+01 5.739458928804324955e+01 1.310895791102137942e+01
4.994815051030499831e+01 5.624824681370803603e+01 8.506680669349984214e+01
5.744016235318159858e+01 6.078928958541515470e+01 6.641709600664897550e+01
3.873609041914778572e+01 5.092493426169614423e+01 3.883980677061702380e+01
6.198714791777567257e+01 5.720425883965300073e+01 1.358315391577015241e+01
4.938527757442309252e+01 3.870350508341394402e+01 4.750575300197085227e+01
4.894511773496388685e+01 5.943052861563317180e+01 5.064463744788588428e+01
3.909990352489757015e+01 4.126638322762315170e+01 3.897777281700183494e+01
6.024339998247288008e+01 6.085319388086888637e+01 5.805141379948467772e+01
4.768671316598882726e+01 6.160268657113061863e+01 1.724955188434511655e+01
5.787489096635477637e+01 5.206185579315912548e+01 2.843738537618509810e+01
5.786101894117013700e+01 6.154225793556251745e+01 3.168150559900240193e+00
4.013716503945263980e+01 4.655953245147467356e+01 8.935436841435377175e+01
6.285068940068558874e+01 5.437533345476384028e+01 8.253353768694198322e+01
4.400704043246025066e+01 4.050341545395129828e+01 3.716115032003802554e+01
5.339424070107479281e+01 4.985597213787615090e+01 7.953832822346225839e+01
4.743665317483220178e+01 5.456767314321161422e+01 3.010978578821381646e+01
4.061195801503333058e+01 6.142568131733332848e+01 9.930727284840614288e+01
5.694628514835085298e+01 4.292017016616406266e+01 9.161732508845886969e+01
3.957535071991146225e+01 4.650950745915442042e+01 2.224281155842279389e+01
6.072503561114081805e+01 4.174823891567292122e+01 1.691293246067726486e+01
6.049086208757958616e+01 4.531950280703054545e+01 7.840675131112433860e+01
6.114841668136862296e+01 4.065608990158015246e+01 7.220029344720705922e+01
5.173018647047985752e+01 5.484733075346110809e+01 3.073789085057086012e+01
5.314257887309303641e+01 5.369284780628294129e+01 7.507264364190966432e+01
6.407443000952562784e+01 4.535870404742923512e+01 1.097086845911010577e+00
3.888947699284687332e+01 4.021064415269239589e+01 6.833406585391806232e+01
5.891259832791663342e+01 5.392472318100184481e+01 7.146695150469260227e+01
5.803045686705633699e+01 3.944241117079103276e+01 5.875366308738821886e+01
4.779461813751545662e+01 6.201064177368622410e+01 1.981023375212676019e+00
6.341379516645502434e+01 4.788322643146371860e+01 1.739548555096774862e+01
4.690049244467115841e+01 6.352930270031045268e+01 5.133177788905991434e+01
5.750039781618119150e+01 5.362103790086165844e+01 4.276908727295142398e+01
4.360027341168869697e+01 5.420467651494492856e+01 2.946383291199773424e+01
3.884575610643508270e+01 5.236039822264769583e+01 9.330386585026586488e+01
3.857640873493907918e+01 4.182731312883640840e+01 7.827448498585178527e+01
4.700464313839425046e+01 6.319198998866435346e+01 9.834560180756295722e+01
3.698564316775487981e+01 5.415684903037342224e+01 1.699342385239240727e+01
4.903422281325023846e+01 3.912178938634739467e+01 8.784807265991589986e+01
6.288852781678887283e+01 4.939448945552057069e+01 7.120120780669573435e+01
5.065440821349183409e+01 5.415532947129750596e+01 1.301999399615694131e+01
5.437392067075761304e+01 5.058500858384466170e+01 2.534375775585847634e+01
5.398582535922417946e+01 4.243663812382221323e+01 3.335794836047022471e+01
5.838171667788609653e+01 4.139096487798595092e+01 6.130679125734165069e+01
4.251232851171544525e+01 5.927578024520902034e+01 2.635767230158577590e+01
3.611584870766127153e+01 5.176277940217111251e+01 6.011587736510924884e+01
5.461648652919891589e+01 4.816644593980561240e+01 6.520274280632565933e+01
5.375185032094806559e+01 6.350743435289862049e+01 4.449673285443016368e+01
4.544988449715418000e+01 4.736836390726980284e+01 7.349356727826055646e+01
3.942351427798737973e+01 4.524576354346569218e+01 6.092507490230988054e+01
4.134825147405102541e+01 3.943884817137180931e+01 1.054358565811497428e+01
5.231021479360594384e+01 5.789882040254897788e+01 7.025856436839718810e+01
3.982276542702793165e+01 4.356015569322786263e+01 3.620910154163513539e+01
5.306816042246902043e+01 3.981478740365457014e+01 7.108748818749404563e+01
4.878658496563082281e+01 6.470687423348536527e+01 3.530146625174512831e+00
6.063845047933845933e+01 5.990021501056719444e+01 5.868371708466420955e+01
4.179736356623886451e+01 5.612396530538526207e+01 7.852676178508075111e+01
5.632389986719673658e+01 5.030903908991513163e+01 3.510153077066480165e+01
4.975634001093047942e+01 6.381457794717326948e+01 4.666374354811991765e+01
5.663451325893841215e+01 6.084466564015654910e+01 7.373302168412874380e+01
4.961969592415300667e+01 4.785660520499548198e+01 3.781631180322965236e+01
4.385343958187434055e+01 4.223469664709008953e+01 1.041449238116468656e+01
4.690691712430478333e+01 4.871890142682926239e+01 6.583275720017603305e+01
5.353978671898791220e+01 3.741893638829232316e+01 1.048034527103608404e+01
3.582201303049406249e+01 4.790801134629698765e+01 2.251803521006764441e+01
5.382415631557550739e+01 4.360773546118147692e+01 8.688929617681436923e+01
6.075598842516031084e+01 5.700454077013916532e+01 6.579447509191990662e+01
5.036835346738944708e+01 5.219052383773908588e+01 7.496587534199483116e+01
4.044220015231876175e+01 4.331652633594199386e+01 3.084087995476577504e+01
5.621400252016901788e+01 4.607141560471789177e+01 3.528530010227419922e+01
6.191475094495807241e+01 5.164083107987317334e+01 1.114459611529002814e+01
5.431228225301182277e+01 4.245056010516125866e+01 2.283778969904406608e+01
5.437871171112239921e+01 6.185931516659931617e+01 6.727074842195310111e+01
6.316512635394958863e+01 5.046863629421272890e+01 2.289822496969907561e+01
3.771045315422687594e+01 4.712401800757134396e+01 4.961976912093819436e+01
5.322879938194239458e+01 5.709834032855819430e+01 9.862444924906326094e+01
4.139421016082533100e+01 3.800893625418060395e+01 3.042233292136555889e+01
4.906218813490491470e+01 4.212301185462952446e+01 8.371683302451904751e+01
6.286140003209680316e+01 4.787367884622780423e+01 6.600662928459315992e+01
5.811396122507921547e+01 5.726355658403227977e+01 2.948640967835503091e+01
4.473672860804352780e+01 5.917515781944048570e+01 2.221194152247777254e+01
5.608455810410008269e+01 3.821634303181733117e+01 7.010470594546117695e+01
5.412106069171264267e+01 3.850129523756340433e+01 1.617283492111729615e+01
4.078100171847334110e+01 5.284874360925753223e+01 6.302067115214249071e+01
6.107959175240645777e+01 5.260376409925540031e+01 8.218461403802017173e+01
4.973296836779703511e+01 4.016355378159007472e+01 8.407884828017085965e+01
4.841050966626132634e+01 5.209567504686381767e+01 7.670025068987706973e+00
4.967273390075008876e+01 3.598978839678395047e+01 4.070432645198413013e+01
5.318363239816390831e+01 5.631223399706716037e+01 4.010543966967463803e+01
4.440690990171988517e+01 5.156952415805606904e+01 1.991079613752027200e+01
4.099976155441969183e+01 6.160063604813823446e+01 2.494076922190070533e+01
4.758585271725952737e+01 5.576368249689356560e+01 5.510418572584274699e-01
5.829150821184049391e+01 5.867003568164015093e+01 4.338239845948113071e+01
4.620112463646843537e+01 5.774536298396865419e+01 8.451692274926951143e+01
4.787338944197720991e+01 3.721193851124738927e+01 9.377253480180711165e+01
4.437622432969908459e+01 3.980403632468038211e+01 2.607534964460911198e+01
3.687481931323518580e+01 4.498195674607823236e+01 6.008722486992185452e+01
4.271224176827328733e+01 3.716329338932658999e+01 9.674453958943067278e+01
6.249112581391040067e+01 4.760204510218424190e+01 3.497359666897062880e+01
4.088286109670226409e+01 4.112644365385087752e+01 5.266058164947039444e+01
4.380493184496528869e+01 5.997547199347976488e+01 1.998151739868603372e+01
4.700694310345944160e+01 4.406282969698782637e+01 5.569409537740410698e+00
4.800345791890904223e+01 5.613462032971979454e+01 1.307021659604907882e+01
5.346074898418997634e+01 4.305872500770422562e+01 4.309785730569169004e+01
3.931457863861073321e+01 5.589699257514207886e+01 8.149740439116952473e+01
6.090284736747435801e+01 5.566052587024280740e+01 6.497672357657816633e+01
3.934196004184792628e+01 4.213774163774838399e+01 4.011166587894804536e+01
5.546706842048705255e+01 4.126402578521206976e+01 4.821963700205870396e+01
5.956234658122122738e+01 5.496722877410329033e+01 5.300049240603762257e+01
5.029215537689720605e+01 5.654108844439037540e+01 7.069786647275930136e+01
4.737839529409983896e+01 6.286973304567852239e+01 1.664327339149883755e+01
4.333041722139893182e+01 4.212075223986335715e+01 9.723943323581256948e+01
5.423767556722724947e+01 5.072978916269521221e+01 1.172293003628095320e+01
5.553919006776180112e+01 5.172005200418468007e+01 7.408539775944944950e+01
4.798565934978324066e+01 4.262353477826444959e+01 1.137670719245890183e+01
4.385194063114317942e+01 4.647218079559860371e+01 8.681741552559518027e+01
4.476281983465199232e+01 4.615808967877840985e+01 2.670826342407119824e+01
5.894313357342321069e+01 5.121601753794629275e+01 3.870243028496400939e+01
4.229780430493299548e+01 5.520800995042187509e+01 9.925975889660409734e+01
4.648774483788060508e+01 4.250924592117772960e+01 3.395238305886680763e+01
4.871356129220586695e+01 5.774098737758517075e+01 5.118889306379065118e+01
4.618183060458934364e+01 4.820594524875166087e+01 8.208882752524210957e+01
6.395118515998440500e+01 4.541240234610740600e+01 1.012556839208490445e+01
4.938304278327002805e+01 5.172962396989294831e+01 3.867354884788316838e+01
3.596110132294989370e+01 5.265948099306135788e+01 4.755808426915308473e+00
4.259804367852693474e+01 5.473027829254847632e+01 1.183134562581650329e+01
6.085300293448994324e+01 5.717252183305894420e+01 4.689975099481659981e+01
5.036122778729512817e+01 6.415433118357897513e+01 6.359514516999167455e+01
3.774268699657478265e+01 5.665915111658082992e+01 1.143147532868420413e+01
4.752652169209336819e+01 4.658925947042441607e+01 8.227539800802603054e+01
5.358565612487633700e+01 5.947250554825581759e+01 9.004530526366319521e+01
4.346226528057477623e+01 3.725144296353571605e+01 7.315870123854267604e+01
3.677936156120978950e+01 4.574716517387620485e+01 6.176848268215003657e+01
3.869079287527152644e+01 5.718575177416841626e+01 4.642288371986816742e+01
6.231979587761497896e+01 4.360931415496953889e+01 6.006176557732377574e+01
3.999541140248559401e+01 4.154756286034856316e+01 6.547419597087854015e+01
4.040671666666438711e+01 4.106328127669286232e+01 4.932061917892021086e+01
5.936786643488950688e+01 3.941664670312380281e+01 9.486882148747565680e+01
4.162427630214097007e+01 5.394038081908541216e+01 4.949706380181415710e+01
5.239250718005457941e+01 3.716088160913335514e+01 9.980297618855711050e+01
5.709581633213173291e+01 5.731024615425580748e+01 8.947123749257876568e+01
4.169785756289336831e+01 4.750294850237811772e+01 5.829641044022654484e+01
5.263088196373416849e+01 5.661417214864433589e+01 1.697751238316986644e+01
4.308180758636473229e+01 4.524539780219666341e+01 5.200721430064702844e+01
5.190879040940296107e+01 4.120003542425180143e+01 9.324630818514685870e+01
4.602367249133785521e+01 3.987648172983774231e+01 9.523151656425737599e+01
5.469465256450561697e+01 6.268119831147551935e+01 5.368650893959227943e+01
4.425255428791514589e+01 4.005880316355783322e+01 8.016836232580601518e+01
4.067413062361649168e+01 4.168811246536417769e+01 6.382305977139735020e+00
4.352948455841401199e+01 6.304435676249791953e+01 3.518423011991564664e+01
5.441773420189733912e+01 4.174507593222923418e+01 7.855048586515526665e+01
6.289448011238489755e+01 5.528315344011731725e+01 4.922766236239990434e+01
5.135192502418992433e+01 4.408188688229015639e+01 1.352025706277797390e+01
4.409364714371572092e+01 3.944895979985695078e+01 8.972943899880399954e+01
6.363576768261955152e+01 5.178959250992111407e+01 5.150466047624450283e+01
4.556208650403086580e+01 5.338842437684630937e+01 7.801623100338026973e+01
4.755282660134366779e+01 3.840818956839330411e+01 1.662030152406224204e+01
4.694199440269420620e+01 6.175892774225882675e+01 3.821253256642044249e+01
5.001030705071125482e+01 3.865768274335162857e+01 3.524266218884929458e+01
5.076278953913330128e+01 4.714822403342610357e+01 9.451182623290611673e+01
5.050750348888995234e+01 5.754461375290746616e+01 6.319738235781779956e+00
5.604165188959547805e+01 4.429373848932942792e+01 9.477573813464516661e+01
3.561857462962109366e+01 5.404088240113475905e+01 9.434750127103532691e+01
5.833600600929757718e+01 4.667682433141268916e+01 4.195464646824910204e+01
4.986337749197766556e+01 4.609405906987298351e+01 7.174647236416864970e+00
5.935113953710207113e+01 4.263999905155188941e+01 5.287724015224267760e+01
4.131347429801296300e+01 4.868410400871933064e+01 9.851984866905945637e+01
5.294895180652834199e+01 4.145576912412109749e+01 2.183214301538190938e+01
5.944038660919753880e+01 5.198945094480846052e+01 2.979494366354966672e+01
3.801917076357981529e+01 4.463021306097688523e+01 1.366010901260428234e+00
4.859724077749799420e+01 5.670014035850466882e+01 3.230309179629846739e+01
4.674048616598484784e+01 6.096140783699133436e+01 9.537263506432633164e+01
4.547239941626318682e+01 3.675625487212561637e+01 4.398342308375189447e+01
5.341976242922065410e+01 4.661485692720756191e+01 2.784592726201846702e+01
4.584445591904837869e+01 5.673658048480962890e+01 6.808327488411882200e+01
5.981079081508108430e+01 4.370238142664364034e+01 9.751909522234451799e+01
4.475692385640160609e+01 4.184069631839552272e+01 7.570337939222511636e+01
5.624009636793954314e+01 4.167056080449504663e+01 8.603194396626317086e+01
5.013015437991498402e+01 6.442266641232757252e+01 9.888872151613732342e+01
5.286636670976848507e+01 4.334890556833295250e+01 8.137531394827358611e+01
4.432937196914098621e+01 4.374071381487713239e+01 5.986232870178837118e+01
3.875574324787658043e+01 4.226144258485291516e+01 9.616131309752654488e+01
4.347302323113279954e+01 5.973801779414632307e+01 4.501231460766042147e+01
4.962334070881547632e+01 4.858184976953224776e+01 7.087140247713625740e+01
6.398095123895862457e+01 4.702783938784403972e+01 8.898459356452778479e+01
6.256110860540712082e+01 4.706125127337148228e+01 3.760892163563435986e+01
5.595564066183625584e+01 3.826730239124042043e+01 1.293954773837133843e+01
4.666581923795749276e+01 5.170139249216391164e+01 6.899435030302744565e+01
5.037563717617119607e+01 3.806696888049244620e+01 7.980748864727084424e+01
3.930242347626032995e+01 5.461431281666158100e+01 4.598385013181561476e+01
5.499444092099209058e+01 5.351224284582747259e+01 2.898255046366508125e+01
6.327573600604008419e+01 4.857429693098820422e+01 4.469224951007851132e+01
4.825191593349926933e+01 5.791818123366985560e+01 3.543638761258057457e+01
5.948000022675890364e+01 5.628619268380749929e+01 1.479273837250894008e+00
5.484206558963098388e+01 6.067226616785285387e+01 5.577007579108750335e+00
6.020572710470294453e+01 5.011695635432088380e+01 6.120474299489071512e+01
4.951956268897374969e+01 5.203728951958456150e+01 6.877307347342777177e+01
4.583408134080607965e+01 4.714800915652438107e+01 6.077645582959146253e+00
4.174419138869891555e+01 4.744896055886139408e+01 7.598381070348214905e+01
4.045855817530244991e+01 6.078072341193521311e+01 7.152695368303979251e+01
6.398180009153344372e+01 5.214469204431178895e+01 6.538392439110633347e+01
5.237217811811816404e+01 5.494636170622914051e+01 1.549987353257363765e+01
5.052792896491777697e+01 5.255706545236722604e+01 2.590018884340181771e+01
5.064556415682991286e+01 3.933148658831826339e+01 1.189326145713106619e+01
5.273379951656765741e+01 6.436582310607951740e+01 4.853234060400969696e+01
4.215610781977770927e+01 5.152360868074831046e+01 7.041494353547895102e+00
4.676746370815436649e+01 4.320919712401378376e+01 4.188059852893892554e+01
4.268309840406341493e+01 4.719090735560483552e+01 4.392145038759811371e+01
3.775146370599943424e+01 5.086927563898444760e+01 9.350828778480101278e+01
3.826202390555959454e+01 4.887277913489553072e+01 5.584884286407515219e+01
5.374581740252617124e+01 4.659259459354056787e+01 2.361455252076953926e+01
4.082841017912509329e+01 5.217947522023405327e+01 4.289080434351863147e+01
6.092826280550498552e+01 5.138328787054112468e+01 5.153165632736611101e+00
3.853667473422557066e+01 5.866155063857626573e+01 1.531929725611496096e+01
4.751277474010132806e+01 4.097441352163081518e+01 1.509371260699676753e+01
3.607423665300770921e+01 4.862106846243120373e+01 2.241865541315580757e+01
5.321249758740851377e+01 5.552552703588706606e+01 8.132242122184226218e+01
6.037755736675141094e+01 5.071104941454244397e+01 7.014012093267916725e+01
5.291245663333804572e+01 4.132658016092665321e+01 3.687363363830342422e+01
3.740103210810157464e+01 4.434659108622444990e+01 2.800251166528925495e+01
4.572851157706120517e+01 3.799460501492904996e+01 3.937105337147994710e+00
4.263426532693671334e+01 3.779455349308796741e+01 4.909130404398715086e+01
3.902742580342238909e+01 3.977404755989384455e+01 8.253886878475040589e+01
5.587747383532346390e+01 6.109800811054489600e+01 1.974577053238789759e+01
6.263254355181568656e+01 4.410486708287526625e+01 6.092473731760932054e+01
5.992151318771213653e+01 4.685172300055545946e+01 1.080903896999644331e+01
5.015933712193787386e+01 4.775227703673044033e+01 5.673821108569801908e+01
5.804493440086942968e+01 4.530234104524912908e+01 5.683845839781106690e+01
4.381598699042804412e+01 3.938505347676662893e+01 2.447657556501140519e+01
4.196144127516193834e+01 3.818965502290521385e+01 6.568122005983273937e+01
4.005996770785755956e+01 5.056190501823688521e+01 8.087270405883072044e+01
5.850283747859221961e+01 5.736118368416360624e+01 2.558488941917540416e+01
5.612211028305678440e+01 4.356108271475489602e+01 1.342939139445639185e+01
6.071757075724241304e+01 4.463071179528512999e+01 2.176027349188866111e+01
5.678130483420215313e+01 3.910036572793512732e+01 2.351195852901209093e+01
5.827677407278476807e+01 4.222168612537326027e+01 7.464973886968935801e+01
5.474611289797356761e+01 4.423541058209382726e+01 5.432813025378605687e+01
5.164399995137360833e+01 3.555879219091728771e+01 1.644282395744535208e+01
6.336443621061877707e+01 4.940055836339921314e+01 5.843451432598343587e+01
4.522047201819885487e+01 6.411805295316752051e+01 3.358908200868000193e+01
5.844169159563452354e+01 6.160300984640851851e+01 7.701147567997330157e+01
4.410363228560697735e+01 5.722876576668063109e+01 4.104240438889330278e+01
4.863438192491948797e+01 5.880839786162337646e+01 5.745431644314083997e+01
4.557193115080452372e+01 4.143021728278036875e+01 3.289189618028832740e+01
5.002301592560613841e+01 5.715038839614827992e+01 8.575193929105317636e+01
5.239438866320400479e+01 5.250230511350739704e+01 9.513536104106835012e+01
4.230975377312154961e+01 4.876605912384003005e+01 2.254867554881787584e+01
4.367526614782442351e+01 5.269535136744904236e+01 2.154873160868571347e+01
3.980827703578589194e+01 4.705976558258593201e+01 7.760193197312327129e+01
4.093947057407105916e+01 5.962720834178171003e+01 9.837943007795551864e+01
4.617273536070713646e+01 5.588291780468608039e+01 2.620405268086322081e+01
4.642347510482793638e+01 4.189080427072493507e+01 2.652914831439572296e+01
5.293831269194897260e+01 3.828427072955932431e+01 2.640456269190071126e+01
6.031932700603407227e+01 5.584255981876101771e+01 2.997477609203480498e+00
3.696228282833254042e+01 5.048941037826868694e+01 9.896582968998932017e+01
5.564245328677941416e+01 5.837236134911380958e+01 8.224443620160955959e+01
5.084358367571466886e+01 6.229844647126402180e+01 7.437530395925606719e+00
5.132601693072914628e+01 6.267846655327743122e+01 1.644850151873480470e+01
5.037437798047046300e+01 4.722212975507076038e+01 9.902688402512590926e+01
6.049111010008980571e+01 4.688074351928997174e+01 3.672198390443880101e+01
5.008919356105143805e+01 6.394854837229466682e+01 7.397996371607570154e+01
6.414175502431612585e+01 4.760390932228253291e+01 5.333496223788969814e+00
4.892476531349078073e+01 6.421525407344284986e+01 6.318031770464482832e+01
5.037896541523893745e+01 5.960139003061356533e+01 3.639618786844589504e+00
4.301170396275129093e+01 6.035243963072179696e+01 3.103020299660059678e+01
4.989237740040363178e+01 4.140534883583026016e+01 8.787974993786724554e+01
4.820817769674194153e+01 4.452549183239435138e+01 4.449161799976567266e+01
5.716485995334335257e+01 4.322849433240509853e+01 4.867929737893543773e+01
5.400029344444335777e+01 5.835684738043729425e+01 6.623300713347430246e+01
4.035372444325558661e+01 4.376678699131677774e+01 7.272690690123795321e+01
5.226038653185855054e+01 3.863435358687883081e+01 9.801246568997142106e+01
5.020260264900271352e+01 4.382454119512376423e+01 1.763143637261651619e+01
4.385801610168109477e+01 5.374910000477506600e+01 1.499769878206225115e+01
4.174084952062112563e+01 4.718589859087409621e+01 7.706221576409748764e+01
5.162451301344341914e+01 6.069339357598956042e+01 2.393193082240037128e+01
4.689606425674340073e+01 4.892247216127969267e+01 6.369868182441331328e+01
4.202648202055748783e+01 4.509288430477793952e+01 4.156305842218937840e+01
5.390606515200454396e+01 4.133634524014044587e+01 4.871809784920928621e+01
4.848122433616413218e+01 4.149098961956770637e+01 1.727240600814577931e+01
4.898941095040858329e+01 5.456212240193646323e+01 5.235598380232440974e+01
5.159667240164543500e+01 6.058349806247892388e+01 2.419250605670386634e+00
4.541194438117371845e+01 6.235472005932941642e+01 3.421229462864785376e+01
5.034233579230977540e+01 5.378217633406874398e+01 4.548161626744700214e+01
4.732429948360451277e+01 3.676585504920659986e+01 4.205739050148704905e+01
5.052536255065096782e+01 4.584608941636530233e+01 8.057442595578491762e+01
4.499910786522078610e+01 4.283291662364693053e+01 5.412476055706530076e+01
5.258270781902578506e+01 5.830639166476429125e+01 7.529089106090088990e+01
5.040272900673357981e+01 3.599371502878683060e+01 5.428611030107345670e+01
5.191048626873663352e+01 3.699822596957962162e+01 5.841553315312465600e+01
3.611987472304102198e+01 5.510325383795856879e+01 1.793304229643966075e-01
5.436351579230988307e+01 6.424848869752712233e+01 8.263832182543477245e+01
5.139621631425682580e+01 4.277543911906020924e+01 6.236595146849853677e+01
5.335766104952305255e+01 4.030721915826379842e+01 3.019886103981873759e+01
5.114291673006283645e+01 3.505657401995194533e+01 2.038740826028140418e+01
3.749622396582772410e+01 4.533392713518218642e+01 1.897446464565014779e+01
6.040809256903231983e+01 4.922319946183873896e+01 7.948307142145500848e+01
5.319163257771460707e+01 5.896604568764733045e+01 9.664611207983745089e+01
6.190916449412299016e+01 4.370705320235953906e+01 3.445942463371359565e+01
5.768752276655330036e+01 6.146592122530542213e+01 1.401326927903333619e+01
4.582950314942635117e+01 5.952682723983583202e+01 3.807563860487319829e+01
4.502575796036838085e+01 4.823291206738251446e+01 7.647082196806790932e+01
6.280322357470742389e+01 5.010666845328167796e+01 7.408157140768317106e+01
3.745832355369490330e+01 5.491624320299538198e+01 8.609026486208018980e+01
4.683928928144346315e+01 4.813680715992190073e+01 3.986401471823231013e+00
5.571836120592599428e+01 5.256267449767908317e+01 7.457314783536517666e+01
5.746813460012262453e+01 3.882781240761345032e+01 1.489449301181632279e+01
6.108790359532887493e+01 4.282109311790529205e+01 1.980795664037841064e+01
4.045551673167651074e+01 4.477294602103813759e+01 7.994133293427766773e+01
3.703866438301299979e+01 5.539873011842531270e+01 3.082443813155227730e+01
5.276414947084968787e+01 5.842116411422109223e+01 9.520213978043705083e+01
5.613408487356409182e+01 4.874000469758485110e+01 6.101378375975048129e+01
4.789788299391193505e+01 5.097157197950904362e+01 5.682173274883219705e+01
5.167574254688101121e+01 5.958788371263950978e+01 3.452117536484451676e+01
4.566170876143598178e+01 4.523895642336338341e+01 8.311150596573064320e+01
5.340303256486609484e+01 5.825959733609117563e+01 6.152526002276752592e+01
4.784418566885483415e+01 3.828464599745699815e+01 6.996945841122274601e+01
6.031947511313420307e+01 5.831601367399274238e+01 6.868763538818797088e+01
5.783693388148773096e+01 4.176616182530845833e+01 1.388847182865585772e+01
4.871948163855284974e+01 4.224023691727647645e+01 6.676532606100668943e+01
5.355352629975305945e+01 4.247585775835784716e+01 1.898424576235472472e+01
4.672986933094589546e+01 4.763884288798586653e+01 2.745901135861316078e+01
4.691999627642549342e+01 3.705694748556967966e+01 7.614732187165640198e+01
4.490694181768142101e+01 4.443659132843513504e+01 5.536134356681255042e+01
4.822168682254679339e+01 5.933075328042529861e+01 2.434570223893913621e+01
6.019512512286534189e+01 3.902455732385325149e+01 7.312745155782435802e+01
5.816630633515656967e+01 5.696723449598605526e+01 1.857051080616092165e+01
5.315834313574466563e+01 5.035203970641064330e+01 5.457573336698430211e+01
4.798523949759425733e+01 5.634365324922819696e+01 5.716084434425540906e+01
4.763656925332324477e+01 5.291870396890139006e+01 4.826912750125802631e+01
5.701072354323444102e+01 4.509275305962859903e+01 5.548905041610328226e+01
5.140506532833113340e+01 5.695582736461341256e+01 4.272569521633037226e+01
5.589878053641409394e+01 4.339812456578060562e+01 6.092021493686079481e+01
4.748732594652794603e+01 6.125579623189254619e+01 6.992414661370983708e+01
5.312436632743139597e+01 6.140113369532156185e+01 3.597035650986653366e+01
6.064002686736754555e+01 4.145778520024878588e+01 4.407684367501348532e+01
5.337973366965995581e+01 5.857924457011927899e+01 2.958749325159083554e+01
5.083349956623551691e+01 5.954150299014688841e+01 5.150913506308585355e+00
5.002836451433849874e+01 4.424457300976606433e+01 7.705514193737309370e+01
4.453810192426560377e+01 4.358215750655956100e+01 2.940284557838840485e+01
5.318247712768754099e+01 6.200678754428361117e+01 9.287148529752830939e+01
5.175150745773241567e+01 4.256802674677966536e+01 7.196504374008505067e+01
4.065442065114370962e+01 4.998221483473444948e+01 2.663165666719545754e+01
5.218318587096587891e+01 4.191373352961409182e+01 4.521472473030574690e+01
5.838592830315077720e+01 5.933309353950577503e+01 9.262832104035794600e+01
4.769760418448441186e+01 4.394076512141614899e+01 4.593486030223989047e+01
6.116875335283271653e+01 5.342372300056589296e+01 9.489839827835552910e+01
5.520094161457976867e+01 5.623124667492014339e+01 4.673121693752591455e+00
4.200038502310262345e+01 5.366324994357404421e+01 9.323345975234784078e+01
6.170480142250978872e+01 5.007875995473305153e+01 6.538805050070057234e+01
4.848068751077856575e+01 4.251929977102962965e+01 5.997631123731940050e+01
5.747411774762552028e+01 4.288195126387479661e+01 9.028478871607329381e+01
3.890016634466836365e+01 5.310029204824062532e+01 7.517816672357989205e+01
6.125966818339634301e+01 5.639791432286165218e+01 8.064627035807160382e+01
4.028479218578056020e+01 4.120352154819681090e+01 6.445346861177023357e+01
6.192212734380122185e+01 5.008160714411681624e+01 2.864648854457099247e+01
4.371043791705616854e+01 4.829999428909971471e+01 4.658371930284287288e+01
5.218184953969188200e+01 4.245402388417736006e+01 7.616032422322847140e+01
4.454026367661126784e+01 5.887960177553295438e+01 2.270557736547572603e+01
4.776057432103826272e+01 5.982498604711172874e+01 9.407371175765611326e+01
5.045395516007221914e+01 4.260403143020268146e+01 8.119391759871682268e+01
3.833638944663012893e+01 5.037927300811625742e+01 9.439075794810758424e+00
4.783873216132623440e+01 4.579585927645732113e+01 1.160930674082649716e+00
5.267405852842627922e+01 4.423411363346255598e+01 2.736273490257233831e+01
5.365165427723045610e+01 6.284708676018922802e+01 1.794426154151825870e+01
4.685663168057562444e+01 3.725215038563722914e+01 1.327246152361843912e+01
5.996790136645848435e+01 5.706010298896033817e+01 1.103985063844243797e+01
5.154414668362537810e+01 4.070088450281399162e+01 6.770490227229171865e+01
4.211203816024462299e+01 4.537636157408662996e+01 4.793158989230605016e+01
5.694001794090909385e+01 6.023140553512632778e+01 6.575527116559964469e+00
5.214065745050508838e+01 5.421233640903848539e+01 1.980258593722975391e+01
6.435008916862767592e+01 5.373136121908726182e+01 9.900759252342935213e+01
4.216852937709663252e+01 4.578609334430958455e+01 5.237616061129523715e+00
4.786842825025009773e+01 5.600307391638496313e+01 7.314291660691992547e+01
5.250861181678492073e+01 4.267298833171951600e+01 9.472491769644101112e+01
5.322051073748412620e+01 3.589669632677397715e+01 5.256879072625753224e+01
5.271481739479314399e+01 4.495345640551960997e+01 5.198845799003488821e+01
5.951471494161174292e+01 5.233585663593235182e+01 8.848024561620371742e+01
4.125132264973206020e+01 5.835933021823835531e+01 6.673844449766282594e+01
4.864255509939054178e+01 6.416180969632799247e+01 9.141594099032830911e+01
4.461230359888710240e+01 5.825185740747102159e+01 1.035316568613530208e+01
5.228512577658707272e+01 5.732322221889727132e+01 9.352584296055663060e+01
3.863958228693618935e+01 5.900641332549147933e+01 2.597318251470968065e+01
6.037740032304478177e+01 5.812689694305077381e+01 3.592830836627209123e+01
3.914558751826039185e+01 4.861646653522507933e+01 1.020047623816756577e+01
5.625002976065940175e+01 5.194821645572487512e+01 5.707665242905968483e+01
5.234305395974716646e+01 4.946636397114521344e+01 5.043776196893621488e+01
6.358126847975740503e+01 4.860739189551618011e+01 6.283766294806139996e+01
5.672583572672187557e+01 6.042204081000949145e+01 4.270193706153035862e+01
5.431725321954582597e+01 6.311792638399976596e+01 7.238669001136238990e+01
6.086078527011702022e+01 4.162353425070482160e+01 9.856165271731786248e+00
4.851364965061010537e+01 5.768800285016478568e+01 2.620408226583231937e+01
5.703986182435447461e+01 4.600221558839736247e+01 8.882815326596521288e+01
4.103299256856526256e+01 6.138336293987309489e+01 7.388209390166744939e+00
6.062026270553390361e+01 4.443361263317488863e+01 2.458866118257474653e+01
5.875868626469438283e+01 5.984998797601386400e+01 4.930315044621636389e+00
5.680529110157608130e+01 5.180563212613375157e+01 6.603943228777120567e+01
4.719360924053529516e+01 4.668992562691520476e+01 6.880213860878458831e+01
5.103073519690456550e+01 4.245150615378896219e+01 7.385526390786289141e+01
4.763273112215166094e+01 5.048115008168816331e+01 7.970658422775099439e+01
6.141159789411950953e+01 4.510304739144764596e+01 6.424419939889491893e+00
5.485922102374614440e+01 3.961777982481329019e+01 2.397149807176346314e+01
6.058789788601445991e+01 5.815900163370909581e+01 7.303564658727719916e+01
6.165958889265642284e+01 4.508702408367201997e+01 9.924104557071837007e+01
5.088559394052275309e+01 4.397233103115672037e+01 1.758406208329024167e+01
5.168151587334116925e+01 4.141326979604791347e+01 4.882730225314853811e+01
6.070376986924392781e+01 5.509316625071271289e+01 2.917954778964208984e+01
5.326188741765843560e+01 6.034045634589178775e+01 7.668220495532283110e+01
5.491390189484020112e+01 4.802253905585887850e+01 4.344315370424510547e+01
5.768718292545486293e+01 3.901023835887981051e+01 8.798634098843693607e+01
3.756771461766977893e+01 4.414267469183307213e+01 2.602302002109642132e+01
6.164647268430580596e+01 5.855659610292738648e+01 8.236294150620635435e+01
5.174918979597904212e+01 5.917216715932621440e+01 2.084218623073563759e+00
5.355336397369361379e+01 3.545280031966229473e+01 3.957333420553754699e+00
4.718492081365610602e+01 5.915316656487051006e+01 7.283351672937315868e+01
5.367128923259699746e+01 3.656513389986532303e+01 9.227293275784040816e+01
5.180268663632401172e+01 4.097847794572697921e+01 1.172904651491375461e+01
5.268573426207635890e+01 5.681929766255802150e+01 8.966403939714201954e+01
4.027991706169052577e+01 4.626886142528664436e+01 5.837546617796105863e+01
4.104609962347496577e+01 4.882181721443389222e+01 4.416576483034406664e+01
6.245377023831027685e+01 5.531216133762958265e+01 3.570809579966092429e+01
4.476409847388985952e+01 5.317616662450114973e+01 8.299136821180243828e+01
4.247522870836265696e+01 5.030329781706802805e+01 2.696673174915362736e+01
3.856042785567752418e+01 4.823569614900292635e+01 8.497193711045262887e+01
5.993473604919438458e+01 4.227282340828107721e+01 4.598786703313015067e+01
4.434745263022081474e+01 3.911803621796162389e+01 3.340083779422344890e+01
3.833853859393057206e+01 5.791416572370559379e+01 1.547585480344796416e+01
5.137117797507369943e+01 3.900314362298349380e+01 7.245365847688246674e+01
4.934053508653201447e+01 5.971548593253827164e+01 2.397518844979917851e+00
5.649503636663474282e+01 4.940925311261339203e+01 2.298380196183656921e+01
5.840322031697154870e+01 5.313840884746971938e+01 8.731641146048183089e+01
4.020958585196119373e+01 4.334087918896929637e+01 3.183366064691196584e+01
4.691336557146688335e+01 5.543237241906947332e+01 4.020593559997178801e+01
5.995009348503631230e+01 5.220104517691665791e+01 8.038643713819246273e+01
4.732645104636434752e+01 5.167497252047061096e+01 4.441235785498057709e+01
4.142440183359703809e+01 6.156228755106924666e+01 6.810093448303588559e+01
4.600836566819401696e+01 6.015641003122566843e+01 5.860151431640744590e+01
5.307216960354030988e+01 5.436322071710101511e+01 3.989765870573373974e+01
4.888510709097256779e+01 6.173968080802357861e+01 1.665976844021799153e+01
4.442754118760460358e+01 5.653263224754113736e+01 8.324103136289311067e+01
5.895239088172760233e+01 5.700817204004986394e+01 4.417897050192314623e+01
4.185056410665861648e+01 4.295129541021932340e+01 1.435474996151471316e+01
5.257234171578502213e+01 5.741641524127237517e+01 4.653587760555175379e+01
6.078320233739836453e+01 4.945571258767853351e+01 3.009563671995319112e+01
5.977278733233318064e+01 5.876348646877459458e+01 6.792853129135090740e+01
4.459575087689616879e+01 5.123063349385190435e+01 8.445715669952537041e+01
4.701662385730024596e+01 4.703567899484533399e+01 6.343894712354913423e+00
6.201181997378431277e+01 5.579586127336840917e+01 6.030373966309211653e+01
5.110320252763317228e+01 3.721728485040386403e+01 9.247816804337335839e+01
5.824536965600525207e+01 5.114164213422408523e+01 8.986105957686325496e+01
4.535317700318377376e+01 4.598474304949332492e+01 5.388233719916268427e+00
3.884916068595887140e+01 5.473533616080676723e+01 1.060499735612360261e+01
5.454877663417312306e+01 3.705931460439128955e+01 2.892502882963049515e+01
5.919748708325106890e+01 3.893546972861260258e+01 2.895951525594773202e+01
4.256609629060874767e+01 4.791290556887412322e+01 7.107369798315707499e+01
5.134066327504852723e+01 4.311407887506618408e+01 2.831118496892421987e+01
5.743140840660462487e+01 5.675087727043872832e+01 3.596151055719861489e+01
5.691195162994952028e+01 3.905574148600278050e+01 6.030459400346408216e+01
6.486748550003692060e+01 4.867451573002524867e+01 5.548707915654708955e+01
4.533198702401261215e+01 5.592091268465652831e+01 5.210958252890579701e+01
5.493619285533169716e+01 5.514507718533271685e+01 2.546957805707485889e+01
3.788824806455083660e+01 5.592876570703327843e+01 4.047705126377265650e+00
4.966436477205298416e+01 4.330067901417726972e+01 5.989469728094394441e+01
3.607582693365388593e+01 5.234688000272937813e+01 9.670216350203477873e+01
