6.475925353738580270e+01 3.506517248952562937e+01 8.749082844137305415e+01
6.323712196787641915e+01 4.921430025013548715e+01 9.968887367015332757e+01
2.549089676065170451e+01 3.959165208504826694e+01 8.874665771282168691e+01
4.845992273893040547e-02 5.874089137895804669e+01 9.036090555996698015e+01
8.566125397265112440e+01 3.163498234266637255e+01 9.293385391667310103e+01
3.210277446940615675e+01 4.258015714294167964e+01 9.680399824513364138e+01
5.854199321447428161e+00 6.345646716973143242e+01 8.154583983953556015e+01
1.142016462740708072e+01 7.724488921420690701e+01 8.192082314063044635e+01
5.391468732225068727e+00 3.473159018607172754e+01 9.424247533433380397e+01
5.349245060058620282e+01 2.996802047259253854e+01 8.336624833638587972e+01
2.405316912403545615e+01 4.264133502979882806e+00 8.876131572337889963e+01
8.434541162357300337e+00 6.828090762140975301e+01 8.921243217720143548e+01
6.405140031200129158e+01 1.482490530130016282e+01 8.092942594200638950e+01
3.077008562417097437e+01 1.422746071488091246e+01 8.721827902924837872e+01
6.527463514272075429e+01 2.545288936782118583e+01 9.544454188244219495e+01
6.442141486438190157e+01 9.798802712658826408e+01 9.929887735626111578e+01
2.127671114019458187e+01 8.946444267630459990e+01 8.719874462128368009e+01
1.740588228975590113e+01 6.702314751382554903e+01 8.850110078579992035e+01
7.896847869295136491e+01 7.027638227261356896e+00 8.985114965506781459e+01
5.644624327086994242e+01 9.192002972191448862e+01 8.946502729017835520e+01
4.085033576434119595e+01 8.684402981033001367e+01 9.688514167359529949e+01
3.798125934188995956e+01 8.645575239403007117e+01 8.150251828174074831e+01
4.242439166391663008e+01 2.005881264075202353e+01 8.957257490255568655e+01
1.412527625062294234e+01 4.985292197776384171e+01 8.186022055482200699e+01
7.716329135144452778e+01 5.753486212407366018e+00 8.834421342287708967e+01
7.939136979027871632e+01 7.312213377365355882e+01 8.427620720522158138e+01
7.694963486477836057e+01 7.277399499408113570e+01 9.820381636330236574e+01
1.993946934261035153e+01 4.767131491928508069e+01 8.935591129182121506e+01
6.076960873427281484e+01 8.381770731379776862e+01 9.029756684632778274e+01
2.049158774974857522e+01 2.411684653890100449e+00 8.443525680297481983e+01
3.300826971792492071e+00 1.688845184075413641e+01 8.582458296176424994e+01
5.586582523866484706e+01 2.934357937422036144e+01 9.779424649626977839e+01
3.907031761690884508e+01 9.749274672515925033e+01 8.247281322704039042e+01
6.001431657447179191e+01 1.813496514581506247e+01 9.519708123068922134e+01
1.625255632841711062e+01 3.576472713601964415e+01 9.352552340852177792e+01
3.258458011036113788e+01 8.002082579035015897e+01 8.264009850366824139e+01
2.419510213571416557e+01 7.593274310077840994e+01 9.965151616857514227e+01
8.056433995445119933e+01 2.979409435731253808e+01 9.377992101880175824e+01
8.806123228299662742e+01 5.879410514603996774e+01 9.401371447852461927e+01
9.042091347135905011e+00 6.124733865522933485e+01 8.043301032124979599e+01
8.542886753700470592e+01 3.537860640250953992e+01 8.269936637746030783e+01
3.607143915156542846e+01 5.075410654687458845e+01 9.596427479795244153e+01
5.393838708631938061e+01 1.381650194485731831e+01 9.359578835801842445e+01
9.041116583334019197e+01 8.165667888031276789e+01 9.656840422663999846e+01
8.921506586051060594e+01 1.687414629332020155e+01 8.428851186800963546e+01
6.723487526398475467e+00 8.300948617130204354e+01 9.336144157991718373e+01
6.023344423916265811e+01 6.286443689953466674e+01 9.188637501614354619e+01
8.247623257656708518e+01 5.860922744411356433e+01 8.237171999269160949e+01
8.516922102064283706e+01 8.220399198437933208e+00 9.782719232907970763e+01
9.988361335669904406e+01 1.427543823672157153e+01 9.575521502414299846e+01
4.568234524268497410e+01 7.737271642937169247e+01 8.330987034705823646e+01
7.250034239079904808e+01 7.942030456393615623e+01 9.801796910642957528e+01
7.247551618806271279e+01 6.400875974340403118e+00 9.251721694021719600e+01
1.691712012073137572e+01 9.475619175666628280e+01 9.298130169256896238e+01
7.758226040809856272e+01 9.499078954075319814e+01 8.616526606335868621e+01
4.102063231882878824e+01 3.599065163976938919e+01 8.852768664437601842e+01
1.082546147764719180e+01 7.790513109391875446e+01 8.109239816875225415e+01
7.317119057358175382e+01 5.368082839547771101e+01 8.675850573421783452e+01
5.834382457563823721e+01 5.389196647436882159e+01 8.665957948734545369e+01
7.550840880507462316e+01 6.006606951770520908e+01 8.779598706762419624e+01
3.273537026143327466e+01 1.842509279241653175e+01 9.575714972837222660e+01
6.018622238562901572e+01 8.777928580967461869e+01 8.299087555605507305e+01
7.751693678873428084e+00 4.745965028379364270e+01 9.867782340154211340e+01
4.581451992686820063e+01 8.583731458151987681e+00 9.211432504252337594e+01
8.905519502591947401e+01 4.875152861543043059e+01 8.395044709786226633e+01
5.661239859450256517e+01 7.070286868519271195e+01 8.771113645888969756e+01
4.600766526249344679e+00 9.465737251120442508e+00 9.057275800614887373e+01
5.829023326310625208e+01 9.331256927512799848e+01 9.654721003479775732e+01
6.393242635213858449e+01 6.998353531010374695e+01 8.634233648224929425e+01
4.967979170652571241e+01 8.801761299452341802e+01 8.359279824857442520e+01
7.014450116017863479e+01 3.769569533565864106e+00 9.247236040801470836e+01
7.805334378271123086e+00 5.290404489917551700e+01 8.182018411555431214e+01
5.023631608374601321e+00 3.036175721884600875e+01 8.382321875245287401e+01
7.796337515753415914e+01 5.654658281628437067e+01 9.022898405098477781e+01
2.602050295799392998e+01 7.979067633123251824e+01 8.639322335483478810e+01
7.623568879891777783e+01 6.286603171413290880e+01 9.116427478067569723e+01
5.962655785104017525e+01 6.954382404259558825e+01 8.158759814096544005e+01
6.051252150394037521e+00 7.736268176854392209e+01 9.478144691822097911e+01
9.886365865486251892e+01 2.787874274691959187e+01 8.633844179882885328e+01
7.514867650291490975e+01 5.313290971727860068e+01 8.388406890830660245e+01
1.624220437118301064e+01 5.274829037171032553e+01 8.937774978088279454e+01
4.928194118650156241e+01 4.342837950563119875e+01 9.598994572071116238e+01
8.338009281799152461e+01 9.916388996544404222e+01 9.272112525196759236e+01
5.083363961130239517e+01 3.741168575014764031e+01 9.424960997230752469e+01
8.653828931971760596e+01 9.771400398268087883e+01 9.511981975994494576e+01
7.669511364611358850e-01 5.332195674676331265e+01 9.654433509573530614e+01
7.339704702779371814e+01 7.397438577721740671e+01 8.291602792930289922e+01
4.158763102195951689e+01 4.219575743467451900e+00 8.294081807294929831e+01
7.183736896396423788e+01 7.902533479635347646e+01 9.899195533158548699e+01
1.345703046044738294e+01 4.941329675500332286e+01 9.652967353841171416e+01
6.568619064288463960e+01 6.263445503270843773e+01 9.561550322700853144e+01
9.950116060459697565e+01 6.612926960442715085e+01 8.912106189882265994e+01
2.029667771063745718e+01 6.916317607219062324e+01 8.539805694405450254e+01
6.956084222178304799e-02 5.964608526406504296e+01 9.966980361653673981e+01
1.145728436105830639e+01 7.585038637887649315e+01 8.945940675387353735e+01
8.881701371884121343e+00 6.900649416524697699e+01 9.668046535487276572e+01
2.598281119000202111e+01 7.159602136359653457e+01 8.422444908239432948e+01
8.125003321268118839e+01 4.820234850363902268e+01 9.849645631942851765e+01
9.087059824318963308e+01 7.483946961396215158e+01 8.635537233741119678e+01
1.368300835091976708e+01 3.675825434654761636e+01 9.403114363904605000e+01
7.363456802709895044e+01 4.570566695803098867e+01 8.214397808662192801e+01
1.016952265453873139e+01 8.528472555111285658e+01 9.429628328886526845e+01
8.442591826563590018e+01 2.658291627071045582e+01 8.392298045516552918e+01
8.767739950662350168e+01 1.778107062925001713e+01 9.542202206323186431e+01
2.118168685302944709e+01 5.986034016736815033e+01 9.771167840644571356e+01
8.371737904081722803e+00 7.512949051009047707e+01 9.156844442578380949e+01
6.932122481218669918e+01 6.356697459960307839e+01 8.669009404804141639e+01
6.211891624026439018e+01 6.357398646202963022e+01 8.900860216793343227e+01
9.338660517366523095e+01 6.851106982527120692e+01 8.934114800851472182e+01
9.431688319065243320e+01 2.500085826776032860e+00 8.121552578667335354e+01
2.553493015539035582e+01 5.691059203480764950e+01 8.202966863925163921e+01
8.739974242612635891e+00 5.175254501124491213e+01 9.729781161696790548e+01
4.927389773251822191e+01 4.498628555474326163e+00 8.093417394979945811e+01
8.946840643455104214e+01 1.520240645509582933e+01 9.696771629827139805e+01
9.907912174576905784e+01 6.633754189985985761e+01 8.696549473369969974e+01
7.164049185411636245e+01 2.949849347626318874e+01 9.190415528907257681e+01
2.520225284101283947e+01 8.277509704989397221e+01 8.992510416369697168e+01
6.359769712885848492e+01 1.292410284420387789e+01 8.205950649551566300e+01
4.968738069737847951e+01 9.604060867507035582e+00 8.406597490560768904e+01
2.669114275431705430e+00 3.263466716443812743e+01 8.794127931910462337e+01
5.275148056739796942e+01 6.319817665971846310e+01 9.053871967290736222e+01
2.970254126190435784e+01 5.516292547555153902e+01 9.063918476402334079e+01
2.905083898764285877e+01 1.119628845477809165e+01 9.491219537314240995e+01
9.332708365077581902e+01 8.976449050344864133e+01 8.504751650615813219e+01
9.993840295677611607e+01 1.709047497960669659e+01 9.399685911693809715e+01
6.434596255129105202e+01 3.877171478026133400e+01 8.796395297165879867e+01
6.856089845057206844e+01 9.882634434629606801e+01 8.460501678156204264e+01
8.799309606969116260e+01 6.892321290956188307e+01 9.075183300910431683e+01
8.790008003023048389e+01 9.127303897727479409e+01 8.452228179124969643e+01
4.381069667593801142e+01 4.298167852546716006e+01 8.716190683244768422e+01
6.300727211024216246e+01 3.597708257398272025e+01 8.311768946295201488e+01
6.749995585770405171e+01 2.802256828573620595e+01 9.691775930606834777e+01
1.352118513401024913e+01 3.043556331020164052e+01 9.360972184378120176e+01
8.440451018722357901e+01 9.358857126629030176e+01 8.666231845199217787e+01
4.870936156524872018e+01 4.940145960303281925e+01 8.015316678568626685e+01
6.914814190417514794e+01 1.271516990539933722e+01 8.312886393389325690e+01
4.578420767016591952e+01 1.579574969345425295e+01 8.590055821731770891e+01
7.693164130781417498e+01 5.002298829838124306e+01 8.565244820589661856e+01
5.044177590235090491e+01 1.566557874507550352e+01 8.085919357316126366e+01
1.375770387629372493e+01 6.345638672213612352e+01 9.712632743385236722e+01
5.620218072097925699e+01 2.411139534994962830e+01 8.318978076589043269e+01
4.075922731508070740e+01 1.565377904231693940e+01 9.710286408695455407e+01
5.105209018927284603e+01 6.889361915049107665e+00 8.842333853475280137e+01
5.757383896156675895e+00 3.252112924475266453e+01 9.326250240538540481e+01
9.897088011414759023e+01 1.471123257490636327e+01 9.828326915137790820e+01
3.186684515155746578e+00 5.906798050657447163e+01 8.400625285370827555e+01
7.196449908359615222e+01 9.029718008558378983e+01 8.730543250212464557e+01
8.637551759906099846e+01 8.640335388360786339e+01 8.453510596039947700e+01
1.065306529668045243e+01 2.928005720914053001e+01 9.900091841405260595e+01
6.644522996853403640e+01 1.485749403200795626e+01 9.673127637752367036e+01
3.677721875733974599e+01 3.215902286993669179e+01 8.499263228220851829e+01
4.864928360228791604e+01 7.357606377250239404e+01 8.021514014784820290e+01
2.568699275841722596e+01 9.506237558627510964e+01 8.225445643566715148e+01
3.227146976392908329e+01 5.315762058247096888e+01 8.961079757383346589e+01
4.018563136960148086e+01 8.922639554067181678e+01 9.603863764245869561e+01
9.782532561312719110e+01 1.562149368492526946e+01 9.921917771477410497e+01
6.330038814325925500e+01 2.324698838556293889e+00 8.977265614282119088e+01
5.687683456661000037e+01 2.467235533642957535e+01 9.828256953896465120e+01
1.323534786045593670e+01 2.356827761853198666e+01 9.590430228481208985e+01
5.642706069863967855e+01 4.236645547340363294e+01 9.209693233242334998e+01
6.853504961636491544e+01 6.199944345314531091e+01 9.233032341520136299e+01
9.642492922219109630e+01 9.245721913766895739e+01 9.820803038226138426e+01
8.027034656704816484e+01 5.995750747554266269e+01 8.128402893168507148e+01
2.000946729753502140e+01 2.102316998891007316e+01 9.227050988618151450e+01
3.270501934650818754e+01 1.216397096505997766e+01 9.869714349855502178e+01
2.632196612994587426e+01 4.112985963504700138e+00 9.100776982476757837e+01
8.853978483036108571e+01 8.761845415486880029e+01 8.800632585294013666e+01
9.797501241121744897e+01 3.343398833382470769e+01 9.057268441014555549e+01
2.795155557892045195e+01 7.148605198287299345e+01 8.672855356966921647e+01
8.454084556775686821e+00 7.744904878536774007e+00 8.554233907661897263e+01
7.071999295287697862e+01 6.758481124591247635e+01 8.629614712200704219e+01
1.454745005486610765e+01 5.761190585178777468e+00 8.605439265142852889e+01
5.942124057904189272e+01 9.135996062892090208e+01 9.982239429400553377e+01
9.726778606394026028e+00 6.927569075814987798e+01 9.766290867354290128e+01
7.453935341418463167e+01 2.452073797072887729e+01 8.537099082104610659e+01
3.272720540719063820e+01 1.790107042196058629e+01 9.630637009738241261e+01
9.450868056049267807e+01 8.475665545133310275e+01 8.184872668604224089e+01
7.321842242388015620e+01 4.156272453448156767e+01 9.954709890208461331e+01
3.304781738660308577e+01 6.343270762986794864e+01 9.168461916991394389e+01
5.544805138457247295e+01 5.487569987914054792e+01 9.239271968088745268e+01
4.800571613922377523e+00 5.167097326284353365e+00 8.049808896601265928e+01
2.098236687726240390e-01 8.490967936893376589e+01 8.556257516444206601e+01
8.833868418561216629e+01 3.079090730261395592e+01 8.735736013178164683e+01
3.025488199774692788e+01 7.161160494006823640e+00 8.714480886020861305e+01
2.595095317554481085e+01 8.140610710436247643e+01 9.689323477492733616e+01
6.763924389823205985e-01 8.100637536434803110e+01 8.673894126458618814e+01
9.661595382766621753e+01 6.958225679236150540e+01 8.195934408176596264e+01
1.424296708429330138e+01 7.599962360432546404e+01 9.413799745769028959e+01
8.525630358289556909e+01 5.907857566077515798e+01 8.364505255317283172e+01
6.476448727140785877e+01 3.981889837586850689e+01 9.678886652113349953e+01
3.595085490970581077e+01 2.636188713530351890e+00 8.825730559774088135e+01
6.562887687442841411e+01 8.331206773492725404e+01 9.879179327006396250e+01
8.567900250177696364e+01 5.452938280292238460e+01 9.571686290756755966e+01
3.214082034735784532e+01 7.590028478107240062e+01 9.960400468179277311e+01
2.429919837670657667e+00 7.072895401643353352e+01 9.352519288572696610e+01
6.397500656194408464e+01 5.405028424203399595e+01 9.354090748497976904e+01
4.989765223559498963e+01 7.863571650605761931e+01 9.876950573695182811e+01
3.098369684878727881e+01 6.490221123363328104e+01 9.359539751432666321e+01
8.475070412130473585e+01 8.235949221933339004e+01 8.423980824712049298e+01
7.980008899803519284e+01 3.017504583674777052e+01 9.532757235357773595e+01
9.323718696369290626e+01 4.613557947940098813e+01 8.063343716648140003e+01
9.526037260464596557e+01 2.614553793361152856e+01 9.849423552427558093e+01
8.872617126845719326e+01 9.597406577967220187e+01 9.229467873510253639e+01
3.025980308010261055e+01 4.741089752183503947e+01 8.539517899447002947e+01
1.276051630445227403e+01 8.016843293858488551e+01 9.252253355519636102e+01
9.094592586911247167e+01 7.990860442420847676e+01 9.628739426773169896e+01
9.716448220675974312e+01 8.904402213778794817e+00 9.346201095574900819e+01
9.006166139384052371e+01 9.489534693378428187e+01 9.707120707318527764e+01
6.460922352388178069e+01 4.893372843051820098e+01 9.858369539056094766e+01
6.823628565796387591e+01 3.611257894514244526e+01 8.973669469296621060e+01
2.672945020709940422e+01 1.344596755524461962e+01 8.418929129324203586e+01
5.623695482635289977e+01 5.555650487596418685e+01 9.267073397942152724e+01
3.909420755580059392e+01 9.281671346548370138e+01 8.206353557992819958e+01
3.419230867880873603e+00 9.552333067909046349e+00 8.871279041574898372e+01
2.480457995165876639e+01 3.734865375424995904e+01 9.193118095735647444e+01
1.145243151593974318e+01 6.630104460565522828e+00 9.450618654516948425e+01
4.622426809490877986e+01 7.555542166375947488e+01 9.533996299616308079e+01
9.342560002840050615e+00 5.322014800647340849e+01 9.338441174759910268e+01
3.660754291243190295e+01 9.409687015642143137e+01 9.771253693210785229e+01
8.663647567501487856e+01 4.324912556420223808e+01 8.542577997318136340e+01
6.039329606182261045e+01 5.991538753649974325e+01 9.702354745644322520e+01
9.572464541209878064e+01 1.534471896273715785e+01 8.636030004602041288e+01
5.848758860959144812e+01 5.079671596984850623e+01 9.745241701142390411e+01
1.651456610682711101e+01 9.303938714137410670e+01 9.629720686193982715e+01
6.780796281280386495e+01 6.788121895261114958e+01 8.726953639281063602e+01
5.915179705485342510e+01 4.509642682911907841e+00 9.887127779636601588e+01
3.237147323406600918e+01 5.040825047365866851e+01 8.771750972428598914e+01
5.014487829124486495e+01 4.103940975785673828e+01 9.650328492302978134e+01
4.911961103553136354e+01 4.844362563731219318e+00 9.784220429426981980e+01
3.645959066954197425e+01 5.771578725085036154e+01 9.160512340845951940e+01
8.052476188481773534e+01 8.864740252489031036e+01 8.789377345041208400e+01
3.706849750589604753e+01 1.577585432196545412e+01 8.687372489652261720e+01
5.062854209797785643e+01 6.048450810530125210e+01 9.224352778299981992e+01
8.821729227157845799e+01 4.936619678941333689e+00 9.156689834852741683e+01
5.454854562010371666e+01 3.666742578963754084e+01 9.608174851182694454e+01
7.275130826216276603e+01 1.857731608033530435e+00 9.569777429531676205e+01
9.874182438169175668e+01 3.834825897001650219e+01 8.990108989424241770e+01
2.157932369471067346e+01 3.072881977160121281e+01 8.317172205729507084e+01
2.383337805776293195e+01 1.053251548203076915e+01 9.585231555868615771e+01
3.855777488914162632e+01 9.454516418231213493e+01 9.593622236080216226e+01
6.868415113530797100e+01 8.409267421856947067e+01 9.918156329840698504e+01
5.179358265809968032e+01 7.734492912649150753e+01 9.745327675581120275e+01
8.184386460048675360e+01 1.064228587518987190e+01 8.993732842892219992e+01
5.408812588122535736e+00 4.149141193547887241e+01 8.211344733100548865e+01
2.268598688253027262e+01 7.469937098214074922e+01 8.902745397612709155e+01
1.666252449350480447e-02 2.221748455173339210e+01 8.935730562732460669e+01
6.699925480783058163e+01 7.279523501016201692e+01 9.037622285635060848e+01
9.442332892791131371e+01 4.153953486057039157e+01 8.340706222732771380e+01
9.203068848289686343e+01 2.686578427799740609e+01 9.744143178734826449e+01
6.554135793399871091e+01 5.359412701516674815e+00 8.164851369531507430e+01
5.487585304276429810e+01 2.391711082172525238e+01 8.364322761486300806e+01
5.389168798701291507e+01 1.877554328328803024e+01 8.342979109479638566e+01
9.871349145576074591e+01 6.101871170923223175e+00 8.461664040286265731e+01
4.854721431661283759e+01 7.030315951989163636e+01 9.961107522082916432e+01
2.216118556664052974e+01 9.907677975704029905e+01 9.595360209900222515e+01
4.331736904816288813e+01 8.993650886227555930e+01 8.228693821950031406e+01
7.864342300593914104e+01 3.901660500567469825e+01 9.174841369737487184e+01
6.162969738660706298e+00 7.323589997831469134e+01 9.522359814711003878e+01
3.552954846246934295e+01 1.837900529844007735e+01 9.651380699043475886e+01
6.831986341469968238e+01 5.692959359458505730e+01 9.015815113525998470e+01
5.871775062164261527e+01 9.402684301271574441e+01 8.554034816060176638e+01
9.755274203032648472e+00 9.748863790302355881e+01 9.986156958663919170e+01
1.141194441253986547e+01 5.015318582713154427e+01 9.196579542295009446e+01
1.405209584416513557e+01 4.577643484995785883e+01 9.760433772996456980e+01
8.038640652976219769e+01 3.169462793267352652e+01 9.333740231562178735e+01
7.615688100691308193e+01 3.911356308322939412e+01 9.279474882350527309e+01
9.473612325662389821e+01 2.656185039985158269e+01 8.985276103007923609e+01
1.877717854736469150e+01 5.674406563428387074e+01 9.650780421926202735e+01
8.133480319213667542e+01 5.890362898493744837e+01 9.391082938265213897e+01
7.532110569490558305e+01 7.620305967824936033e+01 9.788136951284158727e+01
1.243124788168599082e+01 1.229299475810959841e+01 8.779413925537028263e+01
8.059598155560710353e+00 9.621335150216660281e+01 8.730107895308282195e+01
1.825740998629723322e+01 4.266170863346719955e+01 9.516557232573148895e+01
4.156099806367791416e+01 4.134797219816426406e+01 8.925549526618496543e+01
9.942191682676413222e+01 3.997048079402600962e+01 8.835383781785284896e+01
4.820851984866566653e+01 7.826290465935572627e+01 9.961020561077140201e+01
5.981369783685911301e+01 7.691015127824741171e+00 8.302063396035744347e+01
9.331483915525862471e+01 7.161637811834017953e+01 8.184471200233733157e+01
6.294570284375712532e+01 2.805094988491758556e+01 8.399558338060805340e+01
6.190004175225035965e+01 2.462461221277226642e+01 9.529995525372721943e+01
2.360940531377950791e+01 2.756881575238131532e+01 9.482923048280810008e+01
4.256333113761687770e+01 1.581786436715539779e+01 9.695686382443999207e+01
6.072504934964687351e+01 4.769061513318312251e+01 8.863058248149971519e+01
6.227297085960714895e+01 8.755363770654685140e+01 8.518285590217645620e+01
9.746543904260060742e+01 2.765524565769388232e+01 8.364467400088767590e+01
6.792969913428001405e+01 7.140588208940337722e+01 9.784259736867490176e+01
8.769156429552123200e+01 6.627274804405909947e+01 9.203999953068516504e+01
6.745590143340402278e+01 6.950841541177224769e+01 8.017071915846752006e+01
2.672496270130828577e+01 9.057283032014451862e+01 9.495766093476704839e+01
6.781055443740051203e+01 5.140435692100358978e+01 9.385532776641703379e+01
7.133324712289545744e+01 4.779303445385741611e+01 9.945643368512378402e+01
9.829694849698438475e+01 1.288076488513361184e+01 8.641825718422531111e+01
5.277492291467081031e+01 4.939377856326056104e+01 9.730325249804101873e+01
8.633978113955710398e+01 3.310180311684591459e+01 9.293116113687467816e+01
9.933768913929991129e+01 1.403905630759348888e+01 8.030679334578805140e+01
7.083512366233949820e+01 7.217303721512524817e+01 8.167496913023953198e+01
1.251796980732424736e+01 1.041335564992158425e+01 9.871100768873185416e+01
5.968170908172720779e+00 3.237928017876507170e+01 8.833064300841894578e+01
6.074744025711088824e+01 2.949298018944321953e+01 9.095783281663312891e+01
3.870200265007255069e+01 9.515625477758294437e+01 9.748953823569867438e+01
9.483022045194829275e+01 7.939144549714238508e+01 8.597837586947883892e+01
3.345096698031267124e+01 1.973759782902507709e+01 8.799265374812600271e+01
2.487106477437824736e+01 6.549883823786146309e+01 9.153378422547608295e+01
5.810062663663129179e+00 2.484686024075228872e+01 9.176192561202337572e+01
9.492359315994782776e+01 6.656279419618445559e+01 9.198812003050818475e+01
8.294209602288282213e+01 4.487223451036478394e+01 9.271023127561466026e+01
1.384104980960558784e+01 6.329963633698155689e+01 8.215440725134251920e+01
7.404073490198966567e+01 3.369034921665274851e+01 9.729076399922664109e+01
2.504191203019152567e+01 8.843112771717265730e+01 8.569451926389083951e+01
3.869335242811390430e+01 3.166527045917659677e+01 8.810752243870331313e+01
6.059857759145978662e+01 1.708692194027567979e+01 8.995857744152030477e+01
3.698429118184868258e+01 5.755135731054049586e+01 9.745637998129340929e+01
7.414235670718524318e+01 9.995317751294288655e+01 9.220917454920076750e+01
1.954788445139324793e+01 4.363413259360804375e+01 9.290277200439997785e+01
7.424169060318835989e+01 9.937448906872454302e+01 9.446158598594355738e+01
7.112516640538358104e+01 4.077014694561006536e+01 9.651287075835396934e+01
4.020981149271518973e+01 6.428849535848665653e+01 9.544326101511467186e+01
1.011268279230260703e+01 2.492150590983175462e+01 9.115262191040891082e+01
5.697251924339335005e+01 3.808332680382229540e+01 9.951437343801505619e+01
9.751571752481353883e+01 2.490504169390421652e+01 9.957318466149443736e+01
6.874309613357327464e+01 6.470918265430196925e+01 8.589566398969407146e+01
7.098414840385764535e+01 4.689480521744638963e+01 9.018822712906762717e+01
5.042487721979387061e+01 9.243403858259353001e+01 9.473503372346357310e+01
8.061242767735419079e+01 5.425559580825489547e+01 8.565026203830326779e+01
6.342920259375365077e+01 8.594900921422794227e+01 9.780253587209905675e+01
6.249660016090037118e+01 9.130529145984591821e+01 9.205617814960756107e+01
3.213793151307854146e+01 3.604044562921139061e+01 8.164199709144716621e+01
4.270142013461691732e+01 6.079592483385197710e+01 8.564937697833279628e+01
3.772638614161951409e+01 1.963416843215585317e+01 8.771721839003132004e+01
5.862954920231799605e+01 8.604035486130052846e+01 9.718731526684464939e+01
2.303702956855941864e+01 4.238157979235236184e+01 9.479853140841508718e+01
7.692364226075467570e+01 5.087447968686915800e+01 9.952615499827753354e+01
1.811522112622886382e+01 1.011155413004377657e+01 8.290001592875341885e+01
3.950930879328480216e+01 3.683077005439263729e+01 9.012706046513889646e+01
2.205588033751961774e+01 7.539037106931526466e+01 9.479900893643909399e+01
6.030767291263736496e+01 9.167793002031510241e+01 8.009268478476130326e+01
1.466356030380855380e+01 2.495560134231284977e+01 8.916896768984238975e+01
1.272905418161970381e+01 6.253969460232331556e+01 9.002654281536153746e+01
6.648014800072485286e+01 8.642594582025596139e+01 9.130083744026795500e+01
1.946618320207673491e+01 5.194560750280005124e+01 8.992166485755437577e+01
2.098674798532671559e+01 1.303136165532603385e+01 8.124198381783671152e+01
6.408795294447027402e+01 5.956763694531732511e+01 8.581016802514753294e+01
5.696705830937071369e+01 9.249714323268931082e+01 9.104448000908459449e+01
1.820283015161379225e+01 2.108543554143246368e+01 8.525354083703001606e+01
2.578831881064095199e+01 8.157216870570424305e+01 9.489141240730478444e+01
9.777271537937022572e+01 2.890840182119137580e+01 8.892095866367277779e+01
1.896394926599921504e+01 3.315498866148047785e+00 8.415081097287983880e+01
3.681899999069434415e+01 8.460236437823070332e+01 9.888375526283105899e+01
6.967323679456981722e+01 6.510831113981092244e+01 9.070221367597486051e+01
9.893420069812603401e+01 5.839286773288468879e+01 8.572126658855621884e+01
2.864951180817322296e+01 2.414852197599978112e+01 9.189722017983879709e+01
3.583134940548894321e+01 1.229396261547042180e+01 8.535062408879311135e+01
4.771336083167543052e+01 2.674369830703293704e+00 9.114347279425207660e+01
7.560191895586646638e+01 9.334980303090243581e+01 8.197927800874933268e+01
4.165657943762326454e+01 7.206957012236708238e+01 8.582729099789924021e+01
2.500599116397365052e+01 1.497033396511695535e+01 9.535147515355873793e+01
8.980276391390511037e+01 3.910556508409979148e+00 9.072025238531099944e+01
2.598022519649274642e+01 7.266357787092495357e+01 8.153741517215979684e+01
6.229064520076734368e+01 2.223540327020370100e+01 8.787804529540295562e+01
6.601333771322603639e+01 2.011718482008204489e+01 9.787544048397130325e+01
3.418992697628963384e+01 5.520562187928484121e+01 9.874158401418785047e+01
3.056992163568743592e+01 6.005692275599712104e+01 9.257100321291039791e+01
8.771951401037232188e+01 3.734026803383971860e-01 9.210319569988367050e+01
6.780674282544585196e+01 4.817058887850217275e+01 8.604279113021114256e+01
6.213292361409343556e+01 5.193517173150721078e+01 9.248398366685387373e+01
2.136274939143062568e+01 7.150427184233613787e+01 8.635862486624087353e+01
3.539133275713366800e+01 4.059961645669496733e+01 9.335719250225814392e+01
8.201300944986790853e+01 3.360327015193982447e+01 8.363539448032551604e+01
4.432260486540382516e+01 5.390547720928443454e+01 8.659453900784946256e+01
2.577819506123939419e+01 1.863610883794700612e+01 8.768771326510433539e+01
4.411507540829236973e+01 6.108532425551268830e+01 8.192346813552993012e+01
2.886849473384253173e+01 8.511033505614071260e+01 8.277968654682310046e+01
3.091651851299852538e+01 5.602073813462650520e+01 8.179223982449678942e+01
2.273753620346976589e+01 3.744565163442909039e+01 9.837944729692618751e+01
2.365358413259600567e+01 5.680149130580386441e+01 9.415750082874049554e+01
1.814170052302214131e+01 5.314910521662034171e+01 9.779482149783021327e+01
1.874416488787822299e+00 8.047542785673101662e+00 9.980376228648296433e+01
2.419521303018547087e+01 2.284138962421455865e+00 8.260577068497869391e+01
1.846329309204447355e+01 3.892495460710760113e+01 9.303392839120981250e+01
3.469596026815545997e+01 6.123908785282748113e+01 9.802350844312989864e+01
1.349800351048681080e+01 2.167588915178146891e+01 9.661832653874674293e+01
9.638897828126967227e+01 3.285040715645033060e+01 9.180124953601061577e+01
6.994459200194482662e+01 3.590684853159362433e+01 8.705110590296767725e+01
1.343478492225006526e+01 3.422382021454889411e+01 8.245369407289217634e+01
9.401291734243481812e+01 1.538386955325801253e+01 9.007368898980485028e+01
8.455588132351893194e+01 4.803596060607363682e+01 8.627913974497853644e+01
7.342503831341565501e+01 8.362514550667688695e+01 9.409322409805483289e+01
2.974077899115711432e+01 2.869877891133009129e+01 9.033224108140530006e+01
6.214615928005107648e+00 1.420042561009360327e-01 9.853859536333183655e+01
8.199313123291986471e+01 7.745906645671763613e+01 9.659521460790119818e+01
1.570304938745779033e+01 2.404180158904847175e+01 8.619918942228497372e+01
6.398272054040023704e+01 3.767115055610613439e+01 9.724950987567284244e+01
3.970876313086446618e+00 4.877842837940330156e+01 9.567932611050548530e+01
8.365183601348275033e+01 3.792994303211416707e+01 8.471621378035727901e+01
4.111553183919650678e+01 5.506814128720954926e+01 9.445028365620370892e+01
4.911375547182939982e+01 9.673288962484123488e+01 9.012905010393160410e+01
3.237143404995615725e+01 2.814179492606861999e+01 9.764432583740212124e+01
1.053198903763032845e+01 4.289986935666149037e+01 9.891882004757258073e+01
9.232364218007745649e+01 7.721209934457687041e+01 8.754775873010160581e+01
3.303639262990716219e+01 2.488008240758774292e+01 9.252636661768337945e+01
8.016863107412454781e+01 4.414111366118513047e+01 8.807774243200123010e+01
8.717749553463430345e+01 5.066647289153314659e+01 9.826768127022684496e+01
8.807827583877402944e+00 2.312158910422390434e+01 8.332724613605022057e+01
7.741881891984402841e+01 8.424785641078788956e+01 9.801202879060119244e+01
5.897874762885246014e+01 4.383149900465049598e+01 8.798141957550527081e+01
1.184344456898642761e+01 1.678849657667377215e+01 8.457176054568591894e+01
3.220601011390809276e+01 1.225041052513252637e+01 9.095583229000683900e+01
3.028825996351414140e+00 7.198737857343803626e+01 9.791295355095547848e+01
7.999584861987983686e+01 5.640765093596483837e+01 9.014012265422552161e+01
5.250470316926504211e+01 4.965844413525368850e+01 9.119128025837508744e+01
1.635740606152052834e+01 3.288522006333961656e+01 9.456159514772245700e+01
2.345160019469472168e+00 4.624484918059140881e+01 8.433241063217121791e+01
3.957290198534069248e+01 4.470734014520915167e+01 8.004370691695272910e+01
7.346070147686376117e+01 6.093633426150376664e+01 8.238751857679366708e+01
2.782221022846868053e+01 6.502845148181337720e+01 8.705382060567869473e+01
2.981071205482821451e+00 8.155340882380772882e+01 8.811420936843441609e+01
6.546366375797346393e+01 2.699507066240563091e+01 9.873682688114826078e+01
7.022377655851246914e+01 1.714638509604747796e+01 8.170094088787516284e+01
8.617579425104158020e+01 9.788502275533168984e+01 8.239378462935432879e+01
5.675719669798372280e+01 5.626242291283492136e+01 9.854749985475316976e+01
3.556185825276281243e+00 3.885402380523464672e+01 8.183811165749264660e+01
9.988277060298349852e+01 4.033885657730008489e+01 9.419135851966514394e+01
4.044670244833778838e+01 7.396872065885875713e+01 9.969561214106451530e+01
4.167725336889138532e+01 5.025136684467247505e+01 9.559351422709409007e+01
2.900222166948772795e+01 7.332373723975136670e+01 8.673683254685286670e+01
2.594541935308548730e+01 6.525920367602515171e+01 9.666686373652883901e+01
8.098192436800054850e+00 7.150282267708632844e+01 9.420817362411948181e+01
8.796374701618529457e+01 5.239234155446579422e+01 9.734354019535864211e+01
3.616881237911130142e+01 6.048681852954504024e+01 9.230859243042121420e+01
5.246841680690406129e+00 2.320437987962377235e+01 8.170367410823232035e+01
7.939244023866660882e+01 1.547304031212562947e+01 9.763803811599770199e+01
2.901685785446101917e+01 5.806147876408736863e+01 8.588431052954800293e+01
5.676177356027773868e+01 8.139990936090283924e+01 9.702372006584656106e+01
6.700408377770263257e+01 3.784016312919091973e+01 9.346414194535486786e+01
7.974422434894671596e+01 3.640067783481632802e+01 9.573883711131692564e+01
8.993143408652122162e+01 2.233626095466698658e+01 9.681926836473652997e+01
9.773942660397641191e+01 2.290348946314190215e+01 8.522695346789099347e+01
6.904175466426423213e+01 7.524204055508036504e+01 8.553536650450979550e+01
2.160409661757114463e+01 3.799883220403771134e+01 8.562220268974269288e+01
8.550753993301459843e+01 3.186138523500399344e+01 9.335564634421780283e+01
4.801378443476740188e+01 6.566362224753535770e+01 8.999172134504266296e+01
1.152644215890477142e+01 6.581229094217471243e+01 8.871739919383479389e+01
3.653020554902319805e+00 8.640726318085265234e+01 8.662150246005838028e+01
9.792009124085820915e+00 3.475111737959431224e+01 8.645345561939478785e+01
6.974808668702546299e+01 9.948439113025587233e+01 9.528509232317023248e+01
2.406910583059149644e+01 8.284699537968108984e+00 9.662748801397064824e+01
7.688847767837276592e+01 8.654428243044191049e+01 8.187819574689774527e+01
3.962190331826368350e+01 7.307866511899860029e+01 8.385988821125204140e+01
5.908067510629213359e+01 3.880851261334509417e+01 8.192638673972521701e+01
6.177033600085645304e+01 7.141583756282527418e+01 9.385273949012534445e+01
2.816395323018301511e+01 6.060924195657694469e+01 8.896200583984115440e+01
3.876481643369375263e+01 5.947120822490452952e+01 9.567885171602608807e+01
3.638925890634758797e+00 2.114968091292706021e+01 8.755340764595722192e+01
8.281343926701306657e+01 3.519533117534944466e+01 9.590463019853652327e+01
4.001875332875054170e+01 8.858984426298783887e+01 8.942938798879603723e+01
5.317742592800885859e+01 6.904067026855426548e+01 8.661493727641391160e+01
4.891888421115081798e+01 2.010146655270432703e+01 9.403750968343473460e+01
4.916459204004102190e+01 9.329016707358090343e+01 8.021559533353051563e+01
9.411292007295783435e+01 5.793089296335480753e+01 8.614736514080347263e+01
4.021504267524029785e+01 2.325739594504771901e+01 9.544846205093818980e+01
3.204504164065596683e+01 1.312175781656940110e+01 8.009387303982721562e+01
1.806858498513958011e+01 9.215468556487198271e+01 8.721592156907536264e+01
3.567910430818903933e+01 1.504245652375122333e+01 8.049171746339814604e+01
3.198952734510563900e+01 3.594761555204587467e+01 9.054164387952774007e+01
8.945705218690136462e+00 5.421640409457771170e+01 8.102783545528953368e+01
3.987886050186489939e+01 4.735742406391301529e+01 9.299501803472152517e+01
8.304410742324132855e+01 9.725446051533225500e+01 9.852554722489303174e+01
5.417842921635470788e+01 4.238224709636931919e+01 8.787402085856501799e+01
5.969615529824081790e+01 3.415149668444318110e+01 9.094894662806565577e+01
1.823382864363546219e+01 4.615030982923373770e+00 8.036918545018694715e+01
7.252882799959510862e+01 4.250962638976759678e+01 8.694421621198621608e+01
4.710963225161894741e+01 8.771421596789669195e+01 8.298554988546379718e+01
7.562877424260571502e+01 3.169383797419765969e+01 8.394569811992130326e+01
3.611930351469880662e+01 6.648374786944954451e+01 9.029853259044688230e+01
2.984842317699064651e+01 7.668904955978266003e+01 9.017318772187162779e+01
8.867120367960802696e+01 6.433472545227317596e+01 9.896101854441366186e+01
9.530573082009267694e+01 2.367791617374360769e+01 9.931542180821564614e+01
2.472693961091782100e+01 4.292960219749343054e+01 9.607084371837046888e+01
5.851323511291896295e+01 3.754688844230802403e+01 9.136675677294834941e+01
4.877748188885824021e+01 9.243690410719112549e+01 9.484102382976283252e+01
9.958670275143144579e+01 9.427672827206841077e+01 9.192462797175019773e+01
1.470135461312660397e+01 5.147286978475400332e+01 8.720171011330434396e+01
5.905934306039394954e+00 5.132086236908175181e+01 8.980446598925611568e+01
1.594345272195322138e+01 9.906185240132778347e+01 8.079222035101763311e+01
2.170270966049660899e+01 9.538440235061079875e+01 8.873527993288544735e+01
9.333104822560936498e+01 8.604706189347527356e+01 9.430622344324831374e+01
1.341339389011143624e+01 5.414943615543421629e+00 9.610679705395263284e+01
5.768798088318865780e+01 9.213054868894234062e+01 8.169574504154995509e+01
7.740945498663212732e+01 6.120951059677537387e+00 9.754411668568498328e+01
4.427524327002920757e+01 8.715104156029754279e+01 8.857148677503496970e+01
7.690884125344777544e+01 1.947161406319821708e+01 9.142357461066050917e+01
3.536811217038711419e+01 3.025169716646658458e+01 8.951551860577986020e+01
9.022180421244610216e+01 1.188398335927421989e+01 9.128747320108840313e+01
4.032466361195174187e+01 2.489265949128360855e+00 9.017510234417123627e+01
7.588613106594482360e+01 9.638177369472916212e+01 9.439583866864641948e+01
7.270373812993841511e+01 3.141321595117163579e+00 9.137721794410560960e+01
5.565052472840006459e+01 9.451205326889855485e+00 8.067430527202881763e+01
9.519320586189135724e+01 2.910111616979071947e-01 9.776265610529564754e+01
7.080239017237852295e+01 7.343097464620656467e+01 9.338171181457106229e+01
4.415783906012146076e+01 7.383990229934769900e+01 8.848819659661958781e+01
3.268203207724953074e+01 4.067689669058259483e+01 9.586155145514622689e+01
9.155143497890183824e+01 2.458641824378183927e+01 9.346713786544188451e+01
1.874799094431487489e+01 3.791576498357414948e+01 9.776921311564969130e+01
3.718721528769214046e+01 7.295621716802136802e+01 8.718497881965278395e+01
2.499369350418303526e+01 3.180727854575789948e+01 9.035640725656067218e+01
2.759337801280936642e+00 3.946303625565361628e+00 9.907632702586698770e+01
5.816165254570215382e+00 7.079179736076812901e+01 9.398148524419444527e+01
8.408133142127763904e+01 6.080132971485257798e+01 8.821343771219964935e+01
6.961051951072286670e+01 7.522424946239097210e+01 9.401102616973496140e+01
3.309528606031203424e+01 4.226709604930258735e+01 8.885328036842865629e+01
2.614904329203201527e+01 8.115466910278827584e+01 8.233356923133480620e+01
7.819052408030933066e+01 1.915116760634819570e+01 9.154987445974501270e+01
7.567124251591400252e+01 4.610365872150619992e+01 9.968342934057862692e+01
5.468400355699248649e+01 5.452781110788583874e+01 8.616004788436124784e+01
1.728420047261280956e+00 2.147108043343647310e+01 8.608699988202282327e+01
4.883404629700076782e+01 5.532581324647416210e+01 8.566164674413211344e+01
8.135515495940081721e+00 5.222760960603645941e+01 9.666570638492963496e+01
9.621228095877694386e+01 1.091633671344299827e+01 9.375102132204222016e+01
6.489046155370242275e+01 3.380748025145171454e+01 9.517708700481051665e+01
5.431162434602693168e+01 2.379338150800302998e+01 8.263101101467682952e+01
5.319507789551175847e+01 1.818148175491957019e+01 8.172264712341250004e+01
4.644821910373057960e+01 7.403088538580563238e+01 8.909557933905662708e+01
7.723067069582960187e+01 2.145998987097491550e+01 8.611267924403924212e+01
4.299674787460014613e+01 6.551030257502436882e+01 8.037094225068545938e+01
1.390671905447643475e+01 7.562273435248307862e+01 8.820881295288955926e+01
8.527749143668457066e+01 9.646732651633378453e+01 9.413405448642227213e+01
1.556685683110791096e+01 4.069243536266684202e+01 8.286866606688691661e+01
4.470846437413467100e+01 8.253968898300584556e+01 9.968997470672175609e+01
3.867526018382023523e+01 4.923286939623934444e+01 9.027608055622738448e+01
2.159277956953446065e+01 5.016795029634477743e+01 9.439393541795251963e+01
1.011320026795143789e+01 2.113540989008074789e+01 8.032921469321657071e+01
9.730712088596334297e+01 2.724336789548499382e+01 8.936739721610913989e+01
1.928345756164193858e+01 9.008002175711051507e+01 8.747761328489154664e+01
8.798818394167768986e+01 8.315383521887703466e+01 8.092857004936564635e+01
5.191758094584483274e+01 9.711151960719089971e+01 8.633672255292825071e+01
1.061334734726178120e+01 7.749617704027743059e+01 8.123815189684378879e+01
6.535002204943329218e+01 9.221971260908505030e+01 8.883692799433342202e+01
4.282974767521202608e+01 2.530126093494302708e+01 9.091350115302282120e+01
4.827606268890535546e+01 4.304790830636617827e-01 9.444544148601460165e+01
2.751705293930531937e+01 6.863590139839347160e+01 8.182657505846290746e+01
8.597724716677834778e+00 6.752042699591413566e+01 8.819975344060139832e+01
8.356657646459593991e+01 4.527488354445918795e+00 9.328056549230669248e+01
7.905492550283086928e+01 1.667427428871970374e+00 8.099838093767004921e+01
1.588487224539325560e+00 6.013461000477315110e+01 8.226127236209566718e+01
7.622022662490699929e+01 4.270678206712644709e+01 8.057298456861632019e+01
6.015705648383298154e+01 8.972998866195726464e+01 9.761981208914455976e+01
3.010239765892357511e+01 2.469399576581676570e+01 8.884531818357729094e+01
1.659578348961175820e+01 1.227465330559819279e+01 8.545940960239846618e+01
7.985327654764928695e+01 7.950635684718636753e+01 9.281581151936634910e+01
7.160508913321555724e+01 4.831605123329180174e+01 9.933153568265045408e+01
5.510848498740927681e+01 2.553737534200538661e+01 9.009862783166069278e+01
4.926188580934982753e+01 5.620833647139625100e+01 8.338914468976075511e+01
1.148037750240845689e+01 4.042596342584159785e+00 9.575029526019085324e+01
2.808181921564570871e+01 2.265609206687011579e+01 8.994248720870852765e+01
6.009451615796614732e+01 7.294514060615745166e+01 8.872179193084991766e+01
7.699544288267648540e+01 5.106879147194142377e+01 8.952739321883129264e+01
1.540350675659928292e+01 3.804793076673607111e+00 8.898629358781434462e+01
5.361323245290078177e+01 3.836103420929141095e+01 8.921124700769681226e+01
7.404801895660877165e+01 3.780274405851859143e+01 8.473916956152910984e+01
6.400644931548961836e+01 3.351158663230442158e+01 9.084068360955748744e+01
7.550579694112337847e+01 1.116063694591568023e+01 9.140397371803248916e+01
6.244376207455474059e+01 4.793392248624361862e+00 9.761264471596034298e+01
7.886140683792982031e+01 6.846912492857352106e+01 8.623968875454291094e+01
7.525459754578629656e+01 4.830033248423980297e+01 8.894253659690888014e+01
4.324817572077410688e+01 2.548327172990161316e+00 9.411052056158099788e+01
5.087778700039632440e+01 5.799292610892461397e+01 9.824273680531182151e+01
3.326019112958312718e+01 3.040016802413837382e+01 8.430492866894866211e+01
7.363519362456005801e+00 5.667373371506732127e+01 9.447859127563960158e+01
7.588975231011207256e+01 2.716373842938535432e+01 9.923552728043954119e+01
6.220586988579115229e+01 6.522097623974998370e+00 9.002259692346655129e+01
1.244830185540749490e+01 2.478918795065154868e+01 8.832815641654977412e+01
1.357231500067682717e+01 6.690502680990759643e+01 9.320451258850326326e+01
6.702691884536109512e+01 8.073661564242717859e+00 9.405381782693771697e+01
4.111247921014360429e-01 7.893000010706727210e+01 9.202760112435787221e+01
5.988721306119772692e+01 7.945543328867425714e+01 9.983671985892452483e+01
6.150942612714582758e+00 3.415379938919715919e+00 8.989224460417200646e+01
1.532973740538389151e+01 7.058593924618310211e+01 9.911211569039413405e+01
4.548611413587193653e+01 4.516244692894670010e+01 9.365860029336715797e+01
5.551624690088056013e+01 1.780946593455874449e+01 9.657630751187041085e+01
6.008975517952652723e+01 7.442827384953442760e+00 9.639645094202086284e+01
1.130549128258278024e+01 9.685551517433231083e+01 8.449904927211427719e+01
2.882323978151024590e+00 1.690583810148684663e+01 8.366630921176859204e+01
3.744198814746169290e+01 6.597909756149577731e+01 9.750005131761788846e+01
8.380469443432332355e+01 4.448527916960212991e+01 8.054736205903799373e+01
9.091855578563478701e+00 4.202279651795149817e+01 8.475094970473949729e+01
5.929351349670475457e+01 4.210523674916968417e+01 8.884255259273204786e+01
4.980682063435561702e+01 9.783421565016955412e+01 8.770357670166026764e+01
2.400370731553093151e+01 9.064645541152502517e+01 8.846441628962179493e+01
1.440677040165080314e+01 9.817927581261626813e+01 8.404697958287744086e+01
3.560883156663459204e+01 4.777172888352632185e+01 8.758280736377352582e+01
1.227018395560516240e+01 1.642985692637377682e+01 8.903072009190078973e+01
2.704272269648966187e+01 3.780117676483602196e+01 9.809011255764559678e+01
1.491176097451851756e+00 5.201165386485190112e+01 9.792937665873992614e+01
5.104140163049684986e+01 4.840615718350071717e+01 8.398107153043929429e+01
9.783186989181909610e+01 3.315584795940023355e+01 9.336223361010966926e+01
5.662553837980035354e+01 9.973453463195910729e+01 8.011220225216712265e+01
8.990889406595181654e+00 9.987806012448180581e+01 8.951367722167933039e+01
1.902389884485635818e+01 8.401682101097415512e+01 9.668715286960284061e+01
7.000225429117070064e+01 1.134968949645850422e+01 9.320106580906805505e+01
7.453234429862945376e+01 1.456299686191242504e+00 9.567621133698750668e+01
9.493004718098183048e+01 2.876276387226229758e+01 8.977473254470487518e+01
1.596156805012571844e-01 7.324681161042296651e+01 9.568232845958924315e+01
1.101591995560906589e+01 3.569279151924844484e+01 9.579451421233329711e+01
7.438459579003763977e+00 8.248921150143515035e+01 9.613978630647497425e+01
9.455235226444248298e+00 3.116684346280042917e+01 8.221542895964604725e+01
6.375194725646352367e+01 3.845931433764602048e+01 8.967010075450481565e+01
1.329881292837142848e+00 4.128110802911741928e+01 9.602900405515266868e+01
4.864100880952757677e+01 3.112130992731896129e+01 8.413970012176615398e+01
8.627648717679849710e+01 6.973555444065281961e+01 9.280486385472691779e+01
2.759194352362007763e+01 1.572974520528951459e+01 9.652954773795771359e+01
2.393448714124943777e+01 4.695352732455846478e+01 9.438257552632674674e+01
4.729033650840433012e+01 8.673219198316604661e+01 9.147921470102478736e+01
9.333494686467240342e+01 4.441861400093678469e+01 8.680408336423107585e+01
2.450229121783472763e+01 8.405131449577517344e+01 9.315045947360677303e+01
6.703389658334634760e+01 4.642287509589792904e+01 9.397087857254574317e+01
6.660539137747019822e+01 1.608998706265416700e+01 9.600442651225782242e+01
3.253977787761327534e+01 8.877630883063221745e+01 8.773398979028543465e+01
7.772644020783047836e+01 5.990621172515533033e+01 9.925445681276269738e+01
7.492972947974818965e+01 8.689062223311319144e+01 8.735205204330411277e+01
4.616380156271360136e+01 5.193151830886577613e+00 8.643047951028091802e+01
2.733311569852503453e+01 5.247426973080357016e+01 9.519264281210708134e+01
1.740383344805159638e+01 7.501081991239463775e+01 9.479985445403700339e+01
2.662256110624536731e+01 7.201068553581856690e+01 8.041577342599249789e+01
3.083838824020200775e+01 4.246571186568431955e+01 9.703660089025066782e+01
1.114429186838459174e+01 9.603952837266005815e+01 8.934921881487399276e+01
8.697882620075644411e+01 5.463950679816409917e+00 8.209341398337076612e+01
8.361530415438788566e+01 9.267104549254040080e+01 9.747359181215696822e+01
8.403958023299901470e+01 9.743376839431078906e+01 8.130936795384894822e+01
4.148411904474264134e+01 8.456043481465887623e+01 8.210027836803112677e+01
8.680224350479988971e+01 5.764471670569530914e+01 9.082263254312607614e+01
7.854052795619253402e+01 6.628385678182432628e+01 8.151947962828205618e+01
